-2.828317855063038344e+00,-2.886690525126814677e+00,-2.934036570273542477e+00,-2.970883220997622143e+00,-2.997617677283903603e+00,-2.980678994398477943e+00,-2.936630705227401439e+00,-2.864222343477045296e+00,-2.761223726831017800e+00,-2.681051826667238291e+00,-2.619663529526063073e+00,-2.578400822520467095e+00,-2.558237729025890417e+00,-2.504738502725022187e+00,-2.439990426593312556e+00,-2.363069026226916503e+00,-2.272738610041029172e+00,-2.167489940032677698e+00,-2.023014218796590047e+00,-1.830044386757375019e+00,-1.570808843968565904e+00,-1.310087661661651914e+00,-1.044789796602036969e+00,-7.702003231801165528e-01,-4.703170605742351129e-01,3.124656829772473055e-01,1.049012944336705999e+00,1.959626701428119677e+00,3.012154523108995896e+00,3.687347244990460293e+00,4.746023839462090166e+00,6.176802293050072556e+00,7.950175528926699542e+00,9.517975287544494734e+00,1.094758299623357090e+01,1.221958964943847015e+01,1.331926872298303799e+01,1.418579475428071923e+01,1.479737940746439584e+01,1.514716380089284620e+01,1.523137831574079470e+01,1.517508576073173465e+01,1.546073738740843417e+01,1.609212329083822013e+01,1.707733450890921034e+01,1.886953351979638072e+01,2.016646480018718179e+01,2.094629759375943578e+01,2.119671760013565631e+01,2.031869170631491528e+01,1.928664862971427141e+01,1.810601631823134383e+01,1.678346239711082788e+01,1.670664219342011947e+01,1.670427229050043394e+01,1.677634636280782487e+01,1.692305630535394911e+01,1.666422795143865088e+01,1.583782113404495995e+01,1.446166412786975108e+01,1.256815601662688664e+01,1.145696502966812780e+01,1.081298033816135273e+01,1.062099574640052602e+01,1.087627140193793451e+01,1.095097551174329631e+01,1.093002139994898769e+01,1.081351933528267395e+01,1.060208708135750300e+01,9.860952749033062403e+00,9.215227195314728448e+00,8.661813910536277916e+00,8.197852561155356099e+00,7.062429271603343217e+00,5.789234806627237440e+00,4.405816266281695981e+00,2.953279201660403253e+00,2.888990378088355460e+00,2.871146558369084278e+00,2.899576666276460823e+00,2.974552679961264268e+00,2.304998782664818169e+00,1.800073356183429674e+00,1.444054378317173093e+00,1.222590364088207870e+00,1.215464901976363477e+00,1.088945188772286521e+00,8.513818121453882171e-01,5.225525482669256538e-01,-3.491890793029854834e-01,-8.422876199434068401e-01,-6.585968990912061116e-01,-2.607087887860777831e-01,6.752474148402769494e-01,1.549502402729336925e+00,2.377616123440185358e+00,3.096696442327521837e+00,3.448968612485511454e+00,3.877408494502278202e+00,4.386086838984877723e+00
-2.905068803247718545e+00,-2.949776502032352976e+00,-2.980396898725019117e+00,-2.997361762878413938e+00,-3.000902697997697821e+00,-2.998532717670056247e+00,-2.961982646595155089e+00,-2.889955920464715611e+00,-2.779696121778861606e+00,-2.692745357195877709e+00,-2.626853071669879913e+00,-2.583630978633950193e+00,-2.564225707605821469e+00,-2.519340056883851986e+00,-2.455134015716532225e+00,-2.370037893847509736e+00,-2.261694955482234981e+00,-2.149020039665802351e+00,-2.007604250232995824e+00,-1.830799594619504367e+00,-1.606967367808462832e+00,-1.336884251409703239e+00,-1.068899472529906802e+00,-8.051110875671435574e-01,-5.515730636223963312e-01,2.506976806593854690e-01,9.810061530653101380e-01,1.881759516181710890e+00,2.911236253350250269e+00,3.554166230281272210e+00,4.601718468060217226e+00,6.072861746118396020e+00,7.922150121940850553e+00,9.422402869497092937e+00,1.082105052829221137e+01,1.210237770949404812e+01,1.325412726035385091e+01,1.411607482206054875e+01,1.482070997327078565e+01,1.536293167702008411e+01,1.573901201835444397e+01,1.589016479340853927e+01,1.628985789672211482e+01,1.694174216016765655e+01,1.785154979917674467e+01,1.931233641488058694e+01,2.038614004280838898e+01,2.105929505710694727e+01,2.132367508510832010e+01,2.102534231535254250e+01,2.036412903860115975e+01,1.934713880765198013e+01,1.798586509894862928e+01,1.751183740919571719e+01,1.731076197018207807e+01,1.738077187506914711e+01,1.772252005455775503e+01,1.758782034281922790e+01,1.685959474600628027e+01,1.555324160951716905e+01,1.369855231059268341e+01,1.223599714839530961e+01,1.138845187153801497e+01,1.113144988432567040e+01,1.145714957569605907e+01,1.148061919467135183e+01,1.131139008466764295e+01,1.095119229844177156e+01,1.040381507801547833e+01,9.857291800430115103e+00,9.251331346374625397e+00,8.588739692071831300e+00,7.872861518807281023e+00,6.752531311576872142e+00,5.614231066975846396e+00,4.468833267363435446e+00,3.330965006444819743e+00,3.017975790576236772e+00,2.840754449917474389e+00,2.794687646906364176e+00,2.878520824940265399e+00,2.277831780722467503e+00,1.805345369918528231e+00,1.450117915475040098e+00,1.201620407903274179e+00,1.091484091534867140e+00,9.196333942034973230e-01,6.935075411225858355e-01,4.262894709148986050e-01,1.025695989939627399e-02,-6.522076265354656011e-01,-3.409613544714789612e-01,1.176246012035837701e-01,8.366499107255838119e-01,1.636884121514730062e+00,2.421782679688327278e+00,3.150890204206368228e+00,3.468054645311628548e+00,3.880890281742061632e+00,4.394749188213094016e+00
-2.988724234050367023e+00,-2.997524104364425845e+00,-2.989230011111769336e+00,-2.963698442226621488e+00,-2.920477349273822298e+00,-2.950504429372915904e+00,-2.938344821925188199e+00,-2.883464870945641412e+00,-2.783338731825177881e+00,-2.692048481763882339e+00,-2.624306541090852374e+00,-2.581967055640566056e+00,-2.566287628573650004e+00,-2.529922179042777941e+00,-2.466181742271757571e+00,-2.372861280032224851e+00,-2.246277150553196655e+00,-2.152061845541417107e+00,-2.042891717421195352e+00,-1.916212457770890776e+00,-1.768264977219151879e+00,-1.513510946584513572e+00,-1.276340613154603343e+00,-1.068527470741861274e+00,-9.104022024674294222e-01,-4.168606064599499894e-01,4.107200204642084129e-01,1.209893455770933768e+00,2.154690820696563591e+00,2.756112468024812578e+00,3.774080342556390910e+00,5.267142086559852387e+00,7.177183191278336594e+00,8.528084728260031611e+00,9.814555141091828361e+00,1.102441445825570909e+01,1.214797214814826276e+01,1.322807206125154877e+01,1.425633264653857424e+01,1.522894206035336317e+01,1.614260360517791426e+01,1.658940661329296873e+01,1.719113052039069700e+01,1.795092742745451986e+01,1.887259633790545621e+01,1.962735780982315603e+01,2.010090704221066460e+01,2.028910262904092221e+01,2.019033138833826158e+01,2.099741628638903279e+01,2.124148811830204053e+01,2.091857839166095090e+01,2.003394947753936250e+01,1.891032764989227033e+01,1.827044996486525008e+01,1.810470064789933176e+01,1.841052380163672098e+01,1.857529477330827561e+01,1.811956146306208382e+01,1.705269871151030969e+01,1.539783223314351090e+01,1.343395624763753737e+01,1.224720907741924947e+01,1.179876031479265741e+01,1.207278382457128707e+01,1.176005246453840414e+01,1.116058206611325687e+01,1.028372399153031580e+01,9.144332267559628136e+00,8.812116165745891294e+00,8.271278720185167188e+00,7.530203981329085750e+00,6.601550820165524414e+00,5.947364994297454466e+00,5.370296034940495566e+00,4.867166013351235776e+00,4.434876970751352232e+00,3.628759943022565881e+00,3.072814557213006559e+00,2.747121740293334557e+00,2.637994338751372236e+00,2.155537965992267324e+00,1.761578256341691295e+00,1.449657337110981326e+00,1.213431593235640316e+00,9.503310595550178430e-01,6.891361238385285137e-01,4.356602847131405554e-01,2.001344458189742714e-01,1.247692468962224854e-01,1.284487235076522092e-02,4.483235466898707888e-01,8.852914520818667699e-01,1.472404049948530691e+00,2.066053661871510183e+00,2.648458168189628648e+00,3.208115334094733928e+00,3.466236576390155477e+00,3.838682511305400613e+00,4.331658187153176520e+00
-2.972916907724741264e+00,-2.987511261808611263e+00,-2.971256975477362783e+00,-2.923639575068111451e+00,-2.843083641256085592e+00,-2.870418695809840770e+00,-2.870273621581835410e+00,-2.842644211233526619e+00,-2.786713088207609434e+00,-2.685786940742903806e+00,-2.610403103500811728e+00,-2.562816507495654150e+00,-2.544587148447029268e+00,-2.507680211942889592e+00,-2.444225305156439543e+00,-2.352074753708572885e+00,-2.227670298623296130e+00,-2.124859030414457006e+00,-2.014301114160586881e+00,-1.894640915184866659e+00,-1.764027084850391391e+00,-1.609814864887992192e+00,-1.452266142413370043e+00,-1.290159177637924648e+00,-1.121519132669528629e+00,-7.219304322721404876e-01,9.865350592982917444e-02,7.284277187190946190e-01,1.437325833833324573e+00,2.005635709676728773e+00,2.925685438447529485e+00,4.281850342792861142e+00,5.987174001901391485e+00,7.386884681985545598e+00,8.692675181391011918e+00,9.885848831998272246e+00,1.095225986102626337e+01,1.186229262208249580e+01,1.281910519681210836e+01,1.382351232857003076e+01,1.487631488847869221e+01,1.575545315817304193e+01,1.678821758000371389e+01,1.797954407267162580e+01,1.933470963323513558e+01,1.965020215957678928e+01,1.971765317204420143e+01,1.953654937439359784e+01,1.910827378345642913e+01,2.071090905798527970e+01,2.172429564126443680e+01,2.213051246444091191e+01,2.192266039995751470e+01,2.022281134946508985e+01,1.889765324206346619e+01,1.793376022749072973e+01,1.732065258283669351e+01,1.795678754596083238e+01,1.817639049191126688e+01,1.797637564530351284e+01,1.735955167952404210e+01,1.483316743177867814e+01,1.299276073743220117e+01,1.179387217465530568e+01,1.120343767586219030e+01,1.088364051891453421e+01,1.039621785876743765e+01,9.745991370307425683e+00,8.939842956431249377e+00,8.664655571230268194e+00,8.166757553349984988e+00,7.454426761166764948e+00,6.540657044262480291e+00,5.968724485126096546e+00,5.547787403071977153e+00,5.271938270341674837e+00,5.137012827919593683e+00,4.224811229294679116e+00,3.344843944828240989e+00,2.503797333450279883e+00,1.711339037684469044e+00,1.262344499970956546e+00,1.014148023266609799e+00,9.456297980974259776e-01,1.049937707018737010e+00,6.495472892021376676e-01,2.808589118566331977e-01,3.423588935136291514e-04,-6.107768164890623463e-01,-4.351179760615925818e-01,-3.638408676440394451e-01,4.364485657989591316e-01,9.883350639088726020e-01,1.489507968935785742e+00,2.036248516224949956e+00,2.623603746536474990e+00,3.248361634759162619e+00,3.766617066727351304e+00,4.414835423746405141e+00,5.201864739203340804e+00
-2.976904621248054550e+00,-3.004609423590366646e+00,-2.987982448072988184e+00,-2.926268116389995733e+00,-2.816504167465984754e+00,-2.825007573679790607e+00,-2.821792151013206240e+00,-2.806817625330856103e+00,-2.779893973948071917e+00,-2.671632244377448284e+00,-2.591111800732227355e+00,-2.540971280924358755e+00,-2.523022574009791796e+00,-2.483950167175910551e+00,-2.419087401881517163e+00,-2.326277967859580631e+00,-2.201991010525321091e+00,-2.087336626726827404e+00,-1.971928250013065043e+00,-1.855625204670142026e+00,-1.738247917961613043e+00,-1.657335614769900323e+00,-1.540572182080648389e+00,-1.378879889238327383e+00,-1.153517508415127235e+00,-7.113883246181789133e-01,1.268484583596489745e-01,7.127878108692922154e-01,1.265120161198803883e+00,1.856449788591292505e+00,2.750749413458446480e+00,4.055639707305866537e+00,5.647025486611205736e+00,7.108733259886788503e+00,8.442099304780402491e+00,9.622683570391787455e+00,1.063267804444329911e+01,1.139384435669899709e+01,1.229755617538549650e+01,1.334918672909645920e+01,1.455444756012731133e+01,1.558755964586133480e+01,1.677015224975110286e+01,1.810737032217656051e+01,1.960455817301059867e+01,1.973882764230602049e+01,1.966123791928214715e+01,1.937229151841795627e+01,1.887388109994259011e+01,2.078477994152483177e+01,2.207231206647741928e+01,2.271211547983180878e+01,2.269272291970029443e+01,2.092522166709542120e+01,1.940747356564226678e+01,1.813048764125269940e+01,1.708604591201910949e+01,1.767916851758564434e+01,1.805520000557224947e+01,1.821132690725213621e+01,1.814640182248037803e+01,1.552607373782846523e+01,1.346977935906174473e+01,1.194121473726874605e+01,1.090902482254896633e+01,1.045089976464183934e+01,9.942379067595256359e+00,9.385253193503896085e+00,8.781619230799609710e+00,8.526755207893279120e+00,8.035842939832255283e+00,7.317650152496618432e+00,6.386272586895300307e+00,5.761235140445911895e+00,5.364829890791080302e+00,5.188079260812694216e+00,5.226726236590227614e+00,4.525713531007936830e+00,3.608336384509612582e+00,2.514266717055191780e+00,1.314010769669237799e+00,7.856618563795652044e-01,5.649884802127891348e-01,6.069349676166747587e-01,9.213038944181114465e-01,5.022709005286739581e-01,1.320451054592851059e-01,-4.459746344440688737e-01,-7.836616470068453744e-01,-5.215973144538554873e-01,-3.346076678316716735e-01,4.977614518031054369e-01,1.034261471123801179e+00,1.461462017385792622e+00,1.977913590708437308e+00,2.588989452921610646e+00,3.299778797154661270e+00,3.909478630268949040e+00,4.657076680632100896e+00,5.552034027403776939e+00
-3.000608454716662266e+00,-3.048362429720261169e+00,-3.038833550285266139e+00,-2.971470785443655060e+00,-2.842164905516100681e+00,-2.815949092940021714e+00,-2.793920388065535221e+00,-2.776178465553496455e+00,-2.762805911984013818e+00,-2.649457888429950447e+00,-2.566311131759678954e+00,-2.516361197162219732e+00,-2.501597419916681719e+00,-2.458688958559510862e+00,-2.390667675072990050e+00,-2.295301998522879749e+00,-2.168988102847765109e+00,-2.038924978869873783e+00,-1.914858402906372437e+00,-1.798030114169401728e+00,-1.689941961812944093e+00,-1.660267360319501284e+00,-1.556246272345552351e+00,-1.360936475974396931e+00,-1.023339924994053352e+00,-3.583882856699063812e-01,5.231122974180277829e-01,1.158075700905399019e+00,1.603247232666867417e+00,2.284212828159396302e+00,3.226903927647937209e+00,4.565866412178221090e+00,6.129183145420254775e+00,7.674920775304892473e+00,9.048286084556641740e+00,1.022137331847075004e+01,1.117432647121343692e+01,1.180207490614355414e+01,1.266995555652617611e+01,1.378728544761481700e+01,1.516502202821249412e+01,1.608153300353073334e+01,1.713668825453892097e+01,1.833482631592825030e+01,1.968051728209238860e+01,1.989341144071345724e+01,1.993110367404806382e+01,1.979339414535884600e+01,1.948101518355366224e+01,2.121979408759013808e+01,2.228422131091260283e+01,2.265328604569209503e+01,2.231998824966585104e+01,2.100456797346075177e+01,1.979792804600495870e+01,1.869727246836288970e+01,1.769987741419415173e+01,1.773930512299803652e+01,1.775670724656572119e+01,1.775207081281388355e+01,1.772539927639193635e+01,1.549229551495772483e+01,1.367218769110838572e+01,1.224191506322868506e+01,1.118065915298510404e+01,1.045148861841140864e+01,9.791160902984872294e+00,9.197696114254192423e+00,8.669181003225824966e+00,8.398331996025746093e+00,7.878798089406027216e+00,7.120561730763443009e+00,6.139756908841487615e+00,5.329844500196817769e+00,4.828851011627582679e+00,4.620456810110627366e+00,4.697284923921304589e+00,4.518273316142246365e+00,3.862519651148140554e+00,2.779141711495254796e+00,1.380596407242469015e+00,6.488327169333694133e-01,3.574039106930343435e-01,4.090691636170659673e-01,8.254216688185921358e-01,4.899532913934588896e-01,1.768525613948218889e-01,-2.955096891654170332e-01,-6.686833711558539672e-01,-2.429477350778104783e-01,5.062869917138446835e-02,6.376852455205888059e-01,1.021429510727082324e+00,1.388787050903038001e+00,1.891556885847775815e+00,2.544694335130412099e+00,3.362469391317376211e+00,3.891150843542263260e+00,4.553994647824184838e+00,5.360121720042664073e+00
-3.043567785307716100e+00,-3.117648261629143658e+00,-3.122143290011559991e+00,-3.057359806129771318e+00,-2.918688312506187987e+00,-2.843590687370340486e+00,-2.787276670288418856e+00,-2.750900067953130357e+00,-2.735256448432330512e+00,-2.619060184715951145e+00,-2.535839455893488026e+00,-2.488904241507922777e+00,-2.480315299141259811e+00,-2.431848870953454256e+00,-2.358847508097581258e+00,-2.258933794748294588e+00,-2.128320910706576363e+00,-1.978825037158774558e+00,-1.841725826080864215e+00,-1.719990224173185256e+00,-1.617091706144296426e+00,-1.618852372048491750e+00,-1.501564645417006627e+00,-1.231675984875278740e+00,-6.384912251108815218e-01,5.409809607497457762e-01,1.479674800914215993e+00,2.174554639795268862e+00,2.516241780135228812e+00,3.353977385471095918e+00,4.411828829706584187e+00,5.861797925676937027e+00,7.472189318133023228e+00,9.122706722174202199e+00,1.054561084776119628e+01,1.171214400820735690e+01,1.260216657607775836e+01,1.310503514186148344e+01,1.395192520558823723e+01,1.515508803836258878e+01,1.673050959275597549e+01,1.724956203734181415e+01,1.789276179588931726e+01,1.866265096263848378e+01,1.956213449691494333e+01,2.011426033584772455e+01,2.052990074715218682e+01,2.080732343939924789e+01,2.094539558082538022e+01,2.202039272765059508e+01,2.235923420195332767e+01,2.195503151772585682e+01,2.081601682262699882e+01,2.045941631381410986e+01,2.006754022900409140e+01,1.964083088136278477e+01,1.917978203377997559e+01,1.813788086145408940e+01,1.728270385827265798e+01,1.660940484575680998e+01,1.611396505341900465e+01,1.473280007228144584e+01,1.359748560599367195e+01,1.269822277198982796e+01,1.202654906574313998e+01,1.088542149248604574e+01,9.939834482423224316e+00,9.181268163273337279e+00,8.602180792689726019e+00,8.279307126907465175e+00,7.695945677228789528e+00,6.864180101169216286e+00,5.803365695420112047e+00,4.685580660257753216e+00,3.963576773296944022e+00,3.604883961512848956e+00,3.590759060609618025e+00,4.202803482748731945e+00,4.106714958007764871e+00,3.312999563545971249e+00,1.923394100280907404e+00,8.207071297710022417e-01,3.466839901856367256e-01,3.297451296840100965e-01,7.604867213874149101e-01,6.107850402328347528e-01,4.399250265173100249e-01,2.561860605341867436e-01,7.649910207861945755e-02,3.683542149776452557e-01,3.988400973190971421e-01,8.662312020288871484e-01,9.502885051338995082e-01,1.272891689499366930e+00,1.777964886083376550e+00,2.490821430348789445e+00,3.436555931200007574e+00,3.712095304300847776e+00,4.110352459790812318e+00,4.637983155845844863e+00
-2.995519361836439298e+00,-3.043121052147195194e+00,-3.038755574910238622e+00,-2.982194722887289373e+00,-2.870354595085366611e+00,-2.808470532125034502e+00,-2.754764745006658355e+00,-2.709723549198046033e+00,-2.673784858221625260e+00,-2.573519620209739234e+00,-2.499505532300843935e+00,-2.454118880423148408e+00,-2.438958375074288476e+00,-2.414882780024087072e+00,-2.375534006612634030e+00,-2.320135099793467326e+00,-2.247499507323321044e+00,-2.084335057777555456e+00,-1.941466363956945385e+00,-1.823669669459213383e+00,-1.736056132695136034e+00,-1.662884942940758171e+00,-1.465244919301239790e+00,-1.076642891633718957e+00,1.322133481827557633e-01,1.175947402709084155e+00,2.195405603411947570e+00,3.003649696080080478e+00,3.529124316620948942e+00,4.630999572603224479e+00,5.777483873163062000e+00,7.169362057776264230e+00,8.493574714471813891e+00,9.999567665506603475e+00,1.142410630550311446e+01,1.275394471512942474e+01,1.397851862077370377e+01,1.424050808677419155e+01,1.486108733096856405e+01,1.584919480151671145e+01,1.721819284979818221e+01,1.803899047216281204e+01,1.888808541701966703e+01,1.976583242478063340e+01,2.067258254933558348e+01,2.134767608779010573e+01,2.184212668943694524e+01,2.215336348049192594e+01,2.227980400548055684e+01,2.241873972631826817e+01,2.208043738291657121e+01,2.126928768038224149e+01,1.999616022482324240e+01,1.991685945993431162e+01,1.975075745832321061e+01,1.949829285537558476e+01,1.916014093193627588e+01,1.829996561668989230e+01,1.746141423387181391e+01,1.664432327831313785e+01,1.584852840310197308e+01,1.447989029201639077e+01,1.343508642287986099e+01,1.270134675779839739e+01,1.226898650387050260e+01,1.107074836697434961e+01,1.000142649740884160e+01,9.055970640985185227e+00,8.229393751495191367e+00,7.607670137068509142e+00,6.841179497135717824e+00,5.941005103642833518e+00,4.922366853777264240e+00,4.405173576781090006e+00,3.995160091056479956e+00,3.687166545542629681e+00,3.476895202113611472e+00,3.697966993602876506e+00,3.421136705302791903e+00,2.670923125344641047e+00,1.529740823242024428e+00,4.479936301528829046e-01,2.571651723142398191e-02,-1.123618442771629339e-01,2.479686120206437139e-01,2.918268288382142028e-01,2.549631180954229359e-01,1.447354279583305259e-01,2.074451385071180830e-03,2.586631313019905898e-01,4.220302547241353563e-01,1.190480357319232407e+00,1.764820969851871757e+00,2.070452356135567662e+00,2.457388917125230332e+00,2.931543196136504825e+00,3.498911105278146749e+00,3.596536472075945845e+00,3.857698851905434712e+00,4.289002626498080062e+00
-2.951439854824567721e+00,-2.970456984884468188e+00,-2.955775768066072562e+00,-2.906885669021029628e+00,-2.822009284901220383e+00,-2.775223522802528819e+00,-2.725740225283482587e+00,-2.673409606982179998e+00,-2.618060934058824785e+00,-2.530950500124778291e+00,-2.462785929996403667e+00,-2.415171911720595421e+00,-2.389337337549778173e+00,-2.366248817398019177e+00,-2.336174332231463868e+00,-2.298839717515830383e+00,-2.253884219428969882e+00,-2.076317327638212529e+00,-1.927502834432794243e+00,-1.814528773450076571e+00,-1.744372702104122430e+00,-1.649561438750165143e+00,-1.425438738101606262e+00,-9.875748535952056928e-01,3.671965516749808867e-01,1.368098927501783191e+00,2.346657695658347365e+00,3.190125322663095897e+00,3.846245158522870078e+00,5.193003607771435881e+00,6.401200032155546005e+00,7.703699586324742832e+00,8.714343287777758462e+00,1.000061116412136641e+01,1.135813912344684873e+01,1.278709365579085144e+01,1.428774463401174621e+01,1.444839258850365482e+01,1.498074640441969763e+01,1.589271790534279383e+01,1.719711981228186204e+01,1.821152833354653211e+01,1.915622140398638251e+01,2.002845505343870158e+01,2.082584101300217583e+01,2.157620923296475013e+01,2.210266392666130386e+01,2.240185406629485243e+01,2.247191795099831424e+01,2.202020856900580270e+01,2.136118671205430886e+01,2.049875858633042114e+01,1.943826346583611553e+01,1.949042979975367018e+01,1.940575007927591855e+01,1.918458274191205248e+01,1.882787291896791615e+01,1.818272680614036929e+01,1.739391609522603233e+01,1.646559747943962293e+01,1.540296980652467695e+01,1.395011697307286447e+01,1.290072791427310506e+01,1.223796392715858161e+01,1.195034065433192261e+01,1.080469230836991912e+01,9.717266042504984824e+00,8.687316503953644187e+00,7.714107549116320683e+00,6.901240630848480606e+00,6.055490177693854115e+00,5.182728524839290252e+00,4.290298256481290373e+00,4.234202066709586099e+00,4.020281561137712956e+00,3.653587598743100351e+00,3.143603568522588709e+00,3.056910594258274383e+00,2.683491910407068914e+00,2.047460100791597348e+00,1.202240490199192990e+00,2.028978174437942317e-01,-4.427440522555098346e-01,-5.164568314356214884e-01,3.410250682864693350e-02,1.721507832169508201e-01,2.047988256620947300e-01,1.143662934113081758e-01,-2.637567896768883147e-01,1.035695569662444943e-01,2.684582905486799231e-01,1.153843953447947879e+00,2.073052342212085453e+00,2.479765136278613280e+00,2.865790417873652185e+00,3.227172630820751564e+00,3.560792078414703354e+00,3.557208960948187837e+00,3.761393496520843094e+00,4.180117574936422997e+00
-2.911509534982247960e+00,-2.899796124958036181e+00,-2.873239211148246319e+00,-2.831421156728015198e+00,-2.773651775761204696e+00,-2.743917748841015136e+00,-2.700315567285545448e+00,-2.642158743289853895e+00,-2.568458798162787993e+00,-2.491505136779075258e+00,-2.425663133871512223e+00,-2.371858337915730530e+00,-2.330924463586828477e+00,-2.283924868488361515e+00,-2.237813139757279579e+00,-2.192645294081967400e+00,-2.148480862485857568e+00,-1.953374404356931882e+00,-1.797186863284953917e+00,-1.690738652296568612e+00,-1.643721773906281269e+00,-1.577429181530603852e+00,-1.381844836439356961e+00,-9.825773545950550192e-01,2.632851292374859820e-01,1.064540734766755481e+00,1.907312098768562114e+00,2.707748237089127930e+00,3.426593691826867794e+00,4.983244064633332471e+00,6.231255756937100543e+00,7.428342356239999944e+00,8.121534356316388426e+00,9.125780353177688653e+00,1.035109987371206408e+01,1.180996637913058933e+01,1.351525003902840716e+01,1.372035590344623124e+01,1.430700869594931568e+01,1.528456788058771565e+01,1.666766867025148002e+01,1.776358877284874183e+01,1.869088219454049238e+01,1.944370700787759887e+01,2.001757521984334076e+01,2.079328733175375632e+01,2.130384484506923926e+01,2.154526630973831303e+01,2.151570906461959254e+01,2.083348522755530041e+01,2.021041049727267236e+01,1.964555435525571170e+01,1.913804371146342476e+01,1.917867978657090688e+01,1.903284075694924837e+01,1.870138411561620728e+01,1.818628859539672149e+01,1.778724730902451867e+01,1.708078442211904147e+01,1.607461908856071631e+01,1.478044655350042902e+01,1.314983011826961246e+01,1.200367648819936406e+01,1.131867638276907151e+01,1.107962202589735590e+01,1.009394259038476704e+01,9.093423810980759470e+00,8.081521511655934020e+00,7.062303951821886194e+00,6.163579908281381137e+00,5.336705674496546870e+00,4.579673322586859108e+00,3.890416046471942835e+00,4.170183951106348097e+00,4.038916581258333416e+00,3.504790191128114962e+00,2.604964379675866137e+00,2.300223704413593140e+00,1.911095841488841707e+00,1.449853828876488171e+00,9.362231136572058965e-01,6.558380025516739875e-02,-5.656877460125370183e-01,-5.921516635199682854e-01,8.075397518486534740e-03,2.112797912689763635e-01,2.757778793762722946e-01,1.563790994318202676e-01,-3.196845543158354785e-01,-2.796087642759118030e-01,8.707892997969545607e-03,7.640388583409020162e-01,1.812917805341698552e+00,2.447912367350168594e+00,2.972796711936526837e+00,3.368192637993756122e+00,3.622189245860660822e+00,3.593616820463465977e+00,3.819133673037663712e+00,4.307747315124089482e+00
-2.875901235104229237e+00,-2.831288459313109573e+00,-2.791185225711058315e+00,-2.755788414816765730e+00,-2.725281418289023705e+00,-2.714620371705676938e+00,-2.678593280421686540e+00,-2.616152405192340602e+00,-2.525339204601996013e+00,-2.455334085852356907e+00,-2.388118341311389781e+00,-2.323934016958772553e+00,-2.263039058955734095e+00,-2.164069513311211779e+00,-2.072064967671787716e+00,-1.987992680516766031e+00,-1.912898810980256714e+00,-1.690617162079839142e+00,-1.520898411081050172e+00,-1.422680085395028105e+00,-1.410973541343391480e+00,-1.437663375431631696e+00,-1.334091953831643806e+00,-1.062836965406120049e+00,-3.410853299741118394e-01,3.557571235834802170e-01,9.611765607582211102e-01,1.629347143780531360e+00,2.325523309242836678e+00,4.021912928118258179e+00,5.281076671940770240e+00,6.361665616427054637e+00,6.750944884034114857e+00,7.425568029409440385e+00,8.458050374889854339e+00,9.872804323713589625e+00,1.169826804007991683e+01,1.208626081712010070e+01,1.286231676890880671e+01,1.404030973304741536e+01,1.563953111760165804e+01,1.670457166355661727e+01,1.750304979341774825e+01,1.802690867966090948e+01,1.827110179111160093e+01,1.902179317880951359e+01,1.946954167207736930e+01,1.961000122067607521e+01,1.944183334971489785e+01,1.888562144214730054e+01,1.864318569131780734e+01,1.871212844685486232e+01,1.909313529931160858e+01,1.898052707111513371e+01,1.863238620702257720e+01,1.805135637593749820e+01,1.724198588901882445e+01,1.711724330386042681e+01,1.652472237278615097e+01,1.547449721576130166e+01,1.398556091261798429e+01,1.208920327761354585e+01,1.076060007932737683e+01,9.966061564176369458e+00,9.683048763886731081e+00,8.957412405540868150e+00,8.144027920875412718e+00,7.249537878998222773e+00,6.282299265841021274e+00,5.398954694643791186e+00,4.682590903612861233e+00,4.122922243828312183e+00,3.710586310253797926e+00,4.212159134470163657e+00,4.051047020648283592e+00,3.243713473657339641e+00,1.888318257549013834e+00,1.461182465960295884e+00,1.131156410996928541e+00,8.892478983272225079e-01,7.268208500770833025e-01,1.140210686839338537e-02,-5.643258454334533214e-01,-5.141721362230748937e-01,1.255828474069378975e-01,4.247219212296626800e-01,4.864585497501963673e-01,2.823438192329739693e-01,-3.012550363142603715e-01,-6.201213246559789116e-01,-6.918817013459469534e-01,1.376803134081866220e-01,1.035794223730055252e+00,1.978576385073185673e+00,2.771361503855111152e+00,3.350437174522355122e+00,3.683093289076482701e+00,3.706219403696175529e+00,4.032308186328571686e+00,4.676078243631904385e+00
-2.916968480986221746e+00,-2.870280639288215419e+00,-2.831250681874773800e+00,-2.800198840278646184e+00,-2.777392718489280821e+00,-2.704419831531865270e+00,-2.605689420520819422e+00,-2.478124796254442597e+00,-2.316968293691962000e+00,-2.283949713025954065e+00,-2.253870641848007672e+00,-2.226850199190074431e+00,-2.203000932813446333e+00,-2.110356728995324005e+00,-2.019250996234711160e+00,-1.929901628714273620e+00,-1.842564152417288659e+00,-1.630183285414138261e+00,-1.469280405705893910e+00,-1.378007530972225947e+00,-1.370349254211608692e+00,-1.383027020110745298e+00,-1.269806671515278262e+00,-9.883282918763462987e-01,-7.691051197287605834e-02,4.442969341270628370e-01,9.292119402909170267e-01,1.328678379025915568e+00,1.604175841472077924e+00,2.778725886792697608e+00,3.846644173417449686e+00,5.165417493093618084e+00,6.218158818418110023e+00,7.313849080873136899e+00,8.486887978478991457e+00,9.737977771083624390e+00,1.106791133414083461e+01,1.183546419519711179e+01,1.289783462750789234e+01,1.426860085086258501e+01,1.596348775960743183e+01,1.625492968643316516e+01,1.638973830667707077e+01,1.636713023123576605e+01,1.618723629482210669e+01,1.669945348624713333e+01,1.704561981016741967e+01,1.722363452322089472e+01,1.723243729597399110e+01,1.737257555199023784e+01,1.751424996078571894e+01,1.765746577809033013e+01,1.780222826889770360e+01,1.740163560188775094e+01,1.700045057673976245e+01,1.659873345788351173e+01,1.619654658256573754e+01,1.579147934681407150e+01,1.487819671211375017e+01,1.347557962092051298e+01,1.161561004541212760e+01,1.023530315378600086e+01,9.419119887051808249e+00,9.141426387197086001e+00,9.392906126349656049e+00,8.205251428503402167e+00,7.017299593718678175e+00,5.835808281528088060e+00,4.669353757409220762e+00,4.081699335596755240e+00,3.496179139203522634e+00,2.915853974012463823e+00,2.344590914239456758e+00,2.402432394098147128e+00,2.116926120665686639e+00,1.516056832879734806e+00,6.804559037342173822e-01,5.285660139616806807e-01,4.396704454396011541e-01,4.080558019143799564e-01,4.313691483732093879e-01,-1.664118289601687617e-01,-5.748028770927099407e-01,-6.306768224040514292e-01,-4.793303842118877278e-01,4.868172314450115029e-02,2.255516934858282363e-01,3.324390980474926094e-01,3.388582815125218417e-01,1.118970450500943042e-01,1.519750163845312932e-02,4.760951135688950564e-01,1.148720889174741799e+00,2.173953286141866226e+00,3.159126768057790802e+00,4.052571693893936455e+00,4.823809253902306082e+00,4.695530011667000458e+00,4.686486745345165517e+00,4.796543004287909362e+00
-2.863919194287428471e+00,-2.813197257322055389e+00,-2.773502759950672747e+00,-2.745314081112931959e+00,-2.728987787094908413e+00,-2.632649207888319687e+00,-2.510403344639174250e+00,-2.358224680783158167e+00,-2.169824400414196663e+00,-2.154683918832674738e+00,-2.141241697987319448e+00,-2.129529897889036683e+00,-2.119577203238217855e+00,-2.036574533238390661e+00,-1.949618460042247703e+00,-1.858154044043214714e+00,-1.761479141064439258e+00,-1.556882012211720623e+00,-1.402383090173811908e+00,-1.315750340823143683e+00,-1.310512679549771242e+00,-1.317102108317129927e+00,-1.201937560912400560e+00,-9.203973560677938259e-01,2.834669162195545614e-02,5.679318871233501875e-01,1.025529286737405732e+00,1.270387770098934999e+00,1.266301061314608623e+00,1.918464288168931109e+00,2.731764852360884621e+00,4.174375929488523873e+00,5.763802627581886995e+00,7.268094142518531697e+00,8.576208025568089255e+00,9.657887360967569279e+00,1.049224635775359538e+01,1.146365480482944577e+01,1.263458437044975824e+01,1.401425968152739898e+01,1.561238344618557328e+01,1.551194079449620311e+01,1.537327531292222993e+01,1.519659526863792642e+01,1.498216932781095245e+01,1.526806669932967964e+01,1.551797707112481994e+01,1.573153188896016630e+01,1.590842185436062906e+01,1.655454575263883754e+01,1.690281333161921751e+01,1.694941580537214776e+01,1.669385073185525314e+01,1.595722126340526437e+01,1.544896081017208367e+01,1.516482569758414733e+01,1.510237063821653791e+01,1.464127617828513550e+01,1.363043330629724892e+01,1.209458127523785187e+01,1.007604938703220654e+01,8.849144592443948909e+00,8.199051596849594503e+00,8.101412843302467692e+00,8.552376981331581973e+00,7.181713059531276144e+00,5.889394308470476957e+00,4.678189917616161431e+00,3.552125257131915070e+00,3.229372788850153775e+00,2.759410201659532547e+00,2.158624545163602804e+00,1.454223698152801614e+00,1.181653355868837574e+00,8.429038538904641831e-01,4.600726535766623271e-01,8.432638544757542487e-02,4.465373029689211071e-02,3.916506246368372385e-02,6.583201378904170176e-02,1.327839700784641808e-01,-2.908501500032206755e-01,-5.456974205651630161e-01,-6.638748004380501389e-01,-7.165375337639074971e-01,-5.665316448900981072e-01,-2.841189565333269718e-01,1.398589576018084424e-01,4.661707399512935446e-01,3.478168407258954709e-01,2.545114393462225566e-01,7.214526394643507867e-01,1.205035053063782335e+00,2.165216869442961212e+00,3.179124167725654981e+00,4.218066255562158418e+00,5.264210619401743507e+00,5.285103370847168414e+00,5.227279951648438505e+00,5.091263051467868728e+00
-2.711234407257458567e+00,-2.653845873601990313e+00,-2.611460582076739367e+00,-2.584816698300967275e+00,-2.574403017606044397e+00,-2.493998685307580843e+00,-2.390059570722977256e+00,-2.259339909116109713e+00,-2.096837061451559237e+00,-2.075421636314609852e+00,-2.053791281789284717e+00,-2.031939134002145320e+00,-2.009857958635375752e+00,-1.940434945031914715e+00,-1.861280712864286091e+00,-1.771091009075672185e+00,-1.668076792880143655e+00,-1.468788125099477204e+00,-1.317881724538050525e+00,-1.233248246404491599e+00,-1.228660062262276087e+00,-1.238086692113495646e+00,-1.129838967818139306e+00,-8.606031934833836550e-01,3.914160129590155829e-02,7.302845941481101999e-01,1.257353838339856145e+00,1.448482376016016371e+00,1.268473028309271555e+00,1.390561401213982418e+00,1.905257210587086636e+00,3.374042353384134607e+00,5.385007212467740167e+00,7.288056618872887249e+00,8.726388228024170246e+00,9.632264442357312717e+00,9.969937142117180073e+00,1.097322902805784928e+01,1.207630195814024709e+01,1.328255867689603775e+01,1.459536530634774998e+01,1.448417994904003869e+01,1.445099388843886778e+01,1.449570012029375299e+01,1.461844272560741231e+01,1.468444653837915581e+01,1.484143398477903730e+01,1.508998175661494301e+01,1.543098815842678739e+01,1.641244084644597834e+01,1.679826118014930358e+01,1.657990946379441155e+01,1.576218881597152865e+01,1.464300824965598480e+01,1.397674115391471084e+01,1.375138605688141169e+01,1.396273015581124888e+01,1.366040237415184322e+01,1.276339001863815170e+01,1.129690366264526347e+01,9.307331498543236492e+00,7.898678246948995785e+00,7.096098996609493170e+00,6.864881898034806085e+00,7.194181148111744584e+00,5.912366653557809215e+00,4.768431232871862768e+00,3.757578093891038140e+00,2.874891626997184702e+00,2.792672777228987879e+00,2.423424513928136292e+00,1.793596989597943336e+00,9.637369310334008565e-01,4.624158061929952712e-01,1.445130387189369481e-01,-9.702628535341428773e-02,-3.564149229759592252e-01,-4.443477882734994666e-01,-4.757978800199474390e-01,-4.624365841753184658e-01,-3.997960382499211596e-01,-3.778938663454063374e-01,-4.697080388032806031e-01,-6.271383218119955805e-01,-8.129171379222530636e-01,-8.521278240708554108e-01,-7.692325909769412995e-01,-5.075678521378259589e-01,2.001931748267301026e-01,3.023724698420690582e-01,3.379770865316849005e-01,8.260933546049451515e-01,1.203019939658544368e+00,1.952879335352998291e+00,2.829888490301632586e+00,3.833043033972616698e+00,4.963133547841483306e+00,5.442114544077109706e+00,5.645264844413980576e+00,5.566251587500139486e+00
-2.440283118437961196e+00,-2.371701558999927073e+00,-2.323404153494633473e+00,-2.296670943925921193e+00,-2.292256525250848220e+00,-2.276279727262373154e+00,-2.240624188189748178e+00,-2.184326451202064590e+00,-2.105731529636618582e+00,-2.051965600796314071e+00,-1.994833509355231183e+00,-1.934036965647545125e+00,-1.869218443677823638e+00,-1.818395271389958046e+00,-1.751409673041720794e+00,-1.666313604822811101e+00,-1.560146442932140110e+00,-1.363036468146797242e+00,-1.212100092974619958e+00,-1.126060206679364351e+00,-1.119974675843683931e+00,-1.143269792621904868e+00,-1.052642181194365145e+00,-8.107481133217979696e-01,2.082009766269458592e-02,9.349996217068272664e-01,1.639343102295792276e+00,1.880408448750813033e+00,1.611009098400430828e+00,1.149963368656047313e+00,1.334136075410164546e+00,2.749742983192996260e+00,5.079172962372267897e+00,7.373844324734167621e+00,8.938053195332070544e+00,9.661022503991722132e+00,9.499696924126999065e+00,1.036749660550816365e+01,1.123123411873481281e+01,1.208934472745613675e+01,1.294042895837231377e+01,1.318437700710782323e+01,1.362029609815317244e+01,1.425183833401061406e+01,1.508405638648446256e+01,1.492961226214556270e+01,1.499429869615426192e+01,1.527868126167232354e+01,1.578521239931309772e+01,1.694283146901893389e+01,1.719873308098398468e+01,1.654457561264455379e+01,1.500199714067145251e+01,1.345472493472710696e+01,1.258260720333011840e+01,1.236040952703470630e+01,1.278137509512332137e+01,1.284308138093771490e+01,1.226335428503391611e+01,1.106040169202175072e+01,9.275674704744483634e+00,7.358400820086879790e+00,6.105822948747515966e+00,5.458742532166501071e+00,5.380906345844445937e+00,4.436317658387925356e+00,3.665056696822462712e+00,3.054760023003305847e+00,2.593424329130485706e+00,2.740326723136498721e+00,2.460852083764945242e+00,1.784429588432298042e+00,8.065608059529331131e-01,1.389490627751937268e-01,-3.952694613538711987e-01,-4.952903838650340451e-01,-2.470340636809879586e-01,-4.912688804264255249e-01,-6.209359158424418990e-01,-7.026199006160591676e-01,-7.521203709189900888e-01,-4.498030571390413401e-01,-3.145127155281912112e-01,-5.054418130736619830e-01,-8.197452803977877123e-01,-1.061314319146913654e+00,-1.108683554474630517e+00,-9.901291554858477895e-01,-6.163745985747062228e-01,1.613236054784407056e-02,2.135578582248305601e-01,7.763618697625053189e-01,1.142735261889997522e+00,1.550261415285442368e+00,2.138873339648320382e+00,2.930966757888194607e+00,3.948205465106982448e+00,5.158596499182974249e+00,5.933953594351313754e+00,6.230391600661840279e+00
-2.134175156139673124e+00,-2.124602511234128244e+00,-2.121059377114167255e+00,-2.123575934264777310e+00,-2.132130726005352361e+00,-2.139009124629744463e+00,-2.119238283795173761e+00,-2.072055510245208509e+00,-1.995517335768487888e+00,-1.855011745189936168e+00,-1.729920737779589990e+00,-1.623810638582702692e+00,-1.540608408297211795e+00,-1.499658232314562634e+00,-1.426886747158003121e+00,-1.317029686117587195e+00,-1.159594337882162263e+00,-9.391605801046312152e-01,-7.487485899812776902e-01,-6.168181221217676757e-01,-5.844168286070170470e-01,-7.466173451757350810e-01,-7.471359001017673362e-01,-5.864015764558694332e-01,4.630002791241481092e-02,9.743544659643958994e-01,1.677682621446553890e+00,1.920576529741702121e+00,1.657071076289835521e+00,1.080115635314652822e+00,1.035734698645132346e+00,2.076416579675540053e+00,3.800135830234718792e+00,5.639798155151267700e+00,6.945157145758427575e+00,7.625008120059279193e+00,7.640224256280298221e+00,8.703366745766945911e+00,9.810024305635998587e+00,1.095948606416988724e+01,1.215118834122601399e+01,1.275474648091878471e+01,1.352773695391007891e+01,1.447557354009957642e+01,1.560442230622397375e+01,1.513879121281827622e+01,1.478704387047781310e+01,1.454763577894104287e+01,1.441949046184915595e+01,1.519830183303704274e+01,1.525533114360888831e+01,1.458892260986804779e+01,1.321891709148591154e+01,1.210484111294507414e+01,1.160272003462386259e+01,1.169769338106560674e+01,1.239262893227889073e+01,1.232084666798371941e+01,1.171157822172665597e+01,1.058161551110160126e+01,8.965177426083814183e+00,7.174996562763191754e+00,5.803548274127599882e+00,4.814919349227010592e+00,4.176766683535010571e+00,3.435026474975442667e+00,2.897168703630005115e+00,2.547144435551308206e+00,2.372563263826966029e+00,2.145972833967637161e+00,1.690755566945026045e+00,1.045786800536468109e+00,3.031786406457241956e-01,-2.248858125130901164e-01,-5.247697495237839682e-01,-5.380699411513041319e-01,-3.049287512446384185e-01,-4.507996633463233760e-01,-5.397640884975434261e-01,-5.977928969224151068e-01,-6.334457874286367751e-01,-4.874116660355031772e-01,-4.978992394345509442e-01,-6.574603614949606767e-01,-8.891690250510568827e-01,-1.100119573609827928e+00,-1.163775937688002582e+00,-1.105873241296942311e+00,-9.033308664407047051e-01,-4.580838270322755701e-01,1.200266338122304710e-01,7.041802727352799440e-01,1.056866884087934055e+00,1.322281231671067481e+00,1.725907171320079092e+00,2.284066217729046055e+00,3.013564168861222470e+00,4.604779413765386131e+00,5.907686905463146232e+00,6.850661570555116597e+00
-1.865855920581364735e+00,-1.905425706761673554e+00,-1.930821995060623797e+00,-1.942600750085699657e+00,-1.941009896126016931e+00,-1.968801677982090048e+00,-1.961062791546346107e+00,-1.917363056999507265e+00,-1.835135283051888777e+00,-1.626004063947656730e+00,-1.453572381111984058e+00,-1.332168105223113130e+00,-1.276435190795375263e+00,-1.260702737381145910e+00,-1.193409460187130788e+00,-1.064824417062409045e+00,-8.474940062117237716e-01,-6.084237142593601488e-01,-3.421733300530394040e-01,1.847427113819815822e-02,5.920285085204970987e-02,-4.043764316286200255e-01,-5.027278124196727926e-01,-4.042812568959711084e-01,5.931218984620330315e-02,9.416655948684764521e-01,1.585443289195113792e+00,1.775228832431053450e+00,1.473642116885278464e+00,9.341349259546829487e-01,8.056515237659114259e-01,1.650963774949015139e+00,3.000519013201871754e+00,4.478673711031254001e+00,5.595858983490059835e+00,6.282096708291323495e+00,6.502814957061117340e+00,7.553686755855758328e+00,8.685459585818882999e+00,9.899681589581367902e+00,1.119789790872020596e+01,1.191271111897329504e+01,1.277115600665614537e+01,1.377832332681132321e+01,1.493970595234670817e+01,1.445563420507233943e+01,1.397845843187942627e+01,1.350816888532154181e+01,1.304475645711272236e+01,1.350242145016616924e+01,1.341374937474994589e+01,1.278093249893225902e+01,1.162015134237985237e+01,1.067349232876546594e+01,1.028364956094593197e+01,1.043869678007968105e+01,1.114343956138261404e+01,1.090501417218929170e+01,1.023953782722824535e+01,9.163756058679693339e+00,7.707822748247195932e+00,6.262427969974754483e+00,4.979243614583693578e+00,3.852525228194771056e+00,2.876420313102153514e+00,2.213592900744145275e+00,1.785375951006731521e+00,1.568393983151280535e+00,1.548255146956281303e+00,1.102464601834768132e+00,6.326145698097432879e-01,1.812121703137498374e-01,-4.833956642120978420e-01,-7.212661915611487951e-01,-8.116603005071058030e-01,-8.058374160893342353e-01,-7.014053124548431661e-01,-7.358263723062080652e-01,-7.634047136437852599e-01,-7.848619829222082123e-01,-8.006904373416787735e-01,-7.762448086917370649e-01,-8.075165739262025744e-01,-8.886429085320666221e-01,-1.007653515935576172e+00,-1.147179509698256883e+00,-1.190474837057522439e+00,-1.148474700968258544e+00,-1.010599936059034309e+00,-5.163207061580677992e-01,1.550193413501166628e-01,7.557940597590804277e-01,1.049479723032696210e+00,1.296954326958771997e+00,1.656068350045018178e+00,2.138806983895579439e+00,2.757461780154891962e+00,4.393777518202107046e+00,5.842619407120996478e+00,7.033929427304395077e+00
-1.653821591341554820e+00,-1.724848446878817887e+00,-1.756629997060839443e+00,-1.751304143091255483e+00,-1.708523903784832765e+00,-1.756106327268665002e+00,-1.756185029931153663e+00,-1.708766575588341441e+00,-1.609658809858132811e+00,-1.348712256338034265e+00,-1.157627511093945794e+00,-1.074351709771662833e+00,-1.123127408596027887e+00,-1.152280824229835909e+00,-1.109998600977085914e+00,-9.871436393907037088e-01,-7.448611345365634406e-01,-5.677489551290828551e-01,-3.722378887096148281e-01,-5.903066123274838817e-02,4.447647125862560363e-02,-3.539976465176505882e-01,-4.377501137724649771e-01,-3.406494982782560244e-01,5.724457207569630390e-02,8.384482675426958576e-01,1.367201256355077277e+00,1.453515263460531504e+00,1.077985408200993422e+00,7.193539517404917705e-01,6.375822309608574212e-01,1.447244151382304889e+00,2.628420047429173234e+00,3.831467898810726247e+00,4.827270975704669453e+00,5.568994884706088833e+00,6.029229572699023265e+00,6.882396481760457263e+00,7.840603634503477970e+00,8.908335038583860666e+00,1.008997317137584382e+01,1.067601746744760227e+01,1.137418261789563445e+01,1.218811764529300845e+01,1.312176349736327019e+01,1.290549524264723935e+01,1.258946614559767596e+01,1.217520061617074134e+01,1.166476877716494798e+01,1.185736976340646720e+01,1.167346716432728648e+01,1.111663226095422274e+01,1.019811282765091853e+01,9.171949989714162754e+00,8.654045834907215351e+00,8.627734452397550768e+00,9.092138294525957676e+00,8.666080141842817497e+00,7.927781110114043628e+00,6.895171834671415922e+00,5.597187436513737957e+00,4.684887417550450905e+00,3.685628065414888965e+00,2.624726604405984265e+00,1.542324928800339334e+00,8.850203964978132776e-01,4.959035009566420404e-01,3.234073938087104749e-01,3.292081106901538212e-01,-2.065493710905950964e-01,-6.568144417357226761e-01,-8.689650770489949494e-01,-1.006850498074264300e+00,-1.096702260445606480e+00,-1.143007177270143782e+00,-1.151032841905940574e+00,-1.121601281932005811e+00,-1.120716491357156119e+00,-1.122446376593991380e+00,-1.126778895178098150e+00,-1.133684208617762312e+00,-1.138982178399521761e+00,-1.145188343390262986e+00,-1.152288029203169417e+00,-1.160264833534004003e+00,-1.201524588896316414e+00,-1.190691789481699514e+00,-1.126264304408915784e+00,-9.979150140478704190e-01,-3.652567808351975809e-01,3.338710052889622415e-01,9.361762974488454514e-01,1.120253629693476194e+00,1.472075767530443891e+00,1.921574968676216022e+00,2.477407806059022111e+00,3.147819276618190276e+00,4.516446431586452981e+00,5.739010684082351155e+00,6.772998128459517986e+00
-1.521783892653857828e+00,-1.596026614088403406e+00,-1.603720359394417594e+00,-1.545859091480762615e+00,-1.414420365948963587e+00,-1.482750212137274648e+00,-1.485404545705754309e+00,-1.422750993688549626e+00,-1.285274044127728610e+00,-9.830946943499456747e-01,-8.211650996784218837e-01,-8.805908227553947976e-01,-1.126880387012067830e+00,-1.210005756718230963e+00,-1.208146536118855252e+00,-1.120879909252840756e+00,-9.243241238782328173e-01,-8.593607945173501461e-01,-7.906072507719379416e-01,-7.169739433496002956e-01,-6.367702934032281048e-01,-6.654468919209703959e-01,-6.122759013741164713e-01,-4.490690891939146945e-01,4.045390008623205719e-02,6.699594673231537012e-01,1.035278230400419330e+00,9.796669714433828835e-01,5.198991475053533762e-01,4.498314728877931823e-01,5.255245157296332126e-01,1.449921233801042986e+00,2.654131347652063599e+00,3.657290684802875003e+00,4.595389993910439230e+00,5.445516709409236711e+00,6.191701583317573920e+00,6.665387349525611960e+00,7.260981810970532635e+00,7.983811913485734379e+00,8.839706374413859535e+00,9.073768161234301743e+00,9.385414656675544975e+00,9.776143316323215871e+00,1.024775066154132830e+01,1.055192144119020625e+01,1.065977505449765239e+01,1.057009817695271892e+01,1.028389859944418561e+01,1.026576517902545937e+01,1.003412449562384978e+01,9.591934404462316266e+00,8.945079335976338086e+00,7.614413858042145655e+00,6.756552342188840932e+00,6.342161272163257202e+00,6.355486967229164286e+00,5.743921308066361142e+00,4.939380757661888666e+00,3.963265224281291577e+00,2.848573490268905495e+00,2.589510011393066247e+00,2.034452412653300790e+00,1.234113768139390555e+00,3.135818618435390892e-01,-5.104031880824239087e-01,-8.462568980033698951e-01,-9.856357503878344639e-01,-1.013159760095918571e+00,-1.236705167113830051e+00,-1.360842827926219467e+00,-1.412038701783405292e+00,-1.398327554406997075e+00,-1.448504889740390267e+00,-1.489430153323945794e+00,-1.521849942504243325e+00,-1.546299328464754597e+00,-1.531964538730875791e+00,-1.524021852132666721e+00,-1.522571307610085301e+00,-1.527631398887739467e+00,-1.523726790228503436e+00,-1.491986469993537456e+00,-1.430558833819451703e+00,-1.335353205105426877e+00,-1.262214168432703287e+00,-1.164441596971520276e+00,-1.035078286740334752e+00,-8.599843532084899822e-01,1.251800592368252918e-01,7.044175898752019771e-01,1.260144887581849726e+00,1.272153707376791232e+00,1.861994199756110469e+00,2.550293743485624987e+00,3.339494647221990409e+00,4.232369566177158760e+00,4.978162574329879853e+00,5.597281364739017384e+00,6.078187146173488209e+00
-1.346281613444903602e+00,-1.364309897483425571e+00,-1.320997923441967092e+00,-1.209775282769521398e+00,-1.008416411785078903e+00,-1.113828859631417867e+00,-1.127895704568892432e+00,-1.054279675925176241e+00,-8.710255292467803390e-01,-3.961452935661825547e-01,4.463518871168477981e-02,-1.962429889674853489e-01,-7.223890273309427901e-01,-9.875705084128256761e-01,-1.101469916076367905e+00,-1.111605733887552905e+00,-1.021072722120212495e+00,-9.736117821672043426e-01,-9.469760609171677945e-01,-9.429320105840970356e-01,-9.617646553480311278e-01,-8.765914574812089244e-01,-7.740733704685369698e-01,-6.460048381360551373e-01,-4.720281637879648051e-01,4.851043987208514263e-02,1.356934136223557075e-01,6.886981363473214379e-02,-4.065789243936754893e-01,-2.513547421263876980e-01,5.716462895243778347e-02,9.052722653026746835e-01,2.031999657035710616e+00,3.116939222007805821e+00,4.230089623929863762e+00,5.348674472212183950e+00,6.457201332970602614e+00,6.685251900607308784e+00,6.953552446676960486e+00,7.262962156734541708e+00,7.614424919385286650e+00,7.759288634244566829e+00,8.007248365489568087e+00,8.360199693418049804e+00,8.820724207131936723e+00,9.149830357930955671e+00,9.396808189944767520e+00,9.560286924930446517e+00,9.639382980054197247e+00,9.895873570449897016e+00,9.749908925163698115e+00,9.205129031354449154e+00,8.275735715388071512e+00,6.738054561609773785e+00,5.680330003056026200e+00,5.063510134358514492e+00,4.860775719440336928e+00,3.839829332881438351e+00,2.780518996274431665e+00,1.715259203452004666e+00,7.034073867903205546e-01,5.109883303958203671e-01,1.184773265764960531e-01,-6.738328661281451915e-01,-1.149898592634819749e+00,-1.312957999038809387e+00,-1.406506294375454491e+00,-1.444115826371577649e+00,-1.430206418254818201e+00,-1.545066826550838712e+00,-1.613997453135972870e+00,-1.642790077728086162e+00,-1.633568449978517245e+00,-1.678599503412566696e+00,-1.708806776233466218e+00,-1.724969216449586895e+00,-1.727481082515460287e+00,-1.789682386569323880e+00,-1.830944411422717799e+00,-1.852666745321355446e+00,-1.855535755326502834e+00,-1.757587585361874094e+00,-1.658170242263993677e+00,-1.557002323578882352e+00,-1.453718394366255495e+00,-1.420956554103680824e+00,-1.345808068311747041e+00,-1.220468211125207425e+00,-1.026716816630911744e+00,-3.872794232160590711e-01,4.149391261510613216e-01,1.089061324379064111e+00,1.401507056031532361e+00,2.335557013154329287e+00,3.350311440178463052e+00,4.428752230229994424e+00,5.560136464805961687e+00,5.764537323525593671e+00,5.790345040511071240e+00,5.637074124591362256e+00
-9.042175513736171455e-01,-8.888586590382928643e-01,-7.993998732507818783e-01,-6.037555010350976747e-01,1.432589977196204074e-02,-4.802520678953007827e-01,-5.481818416575817698e-01,-4.196369945486651543e-01,8.761573578809088436e-02,5.853174925094833947e-01,7.925961793476417050e-01,6.163926669492512112e-01,1.317753804383478278e-01,-6.292161509107577766e-01,-8.701693421101146519e-01,-9.413864965334870494e-01,-8.848471734083129814e-01,-8.335554526982099643e-01,-8.314256567035106515e-01,-8.788152877564904264e-01,-9.684821912827782375e-01,-8.174612980587163680e-01,-6.917517443132237265e-01,-6.072810392573857463e-01,-5.822820008099767186e-01,-5.797381675942334667e-01,-6.187169362019451224e-01,-6.922392946085023091e-01,-7.907275918648496438e-01,-6.681840105627971926e-01,-5.269402764179427212e-01,4.522293572533501171e-01,1.367113310278770699e+00,2.341146328845886693e+00,3.418252774587267062e+00,4.581911822722347871e+00,5.822119959861223215e+00,6.008574238823118030e+00,6.160198553842908709e+00,6.276443985640404399e+00,6.356900652902057303e+00,6.412210106767429529e+00,6.593694938300962427e+00,6.903435977662217837e+00,7.344832678942368354e+00,7.536747024076293933e+00,7.752650698945454444e+00,7.992911669901310745e+00,8.257925532413828762e+00,8.747255639600229671e+00,8.659742943229531420e+00,7.998954604894984222e+00,6.793364452103922702e+00,5.216378606799193740e+00,4.115795184804191820e+00,3.443025268224845892e+00,3.160562654739877519e+00,1.988774687830140886e+00,9.471103912667766522e-01,1.199685458075941680e-01,-7.675181952152894116e-01,-8.472676685937713392e-01,-1.051616692571891498e+00,-1.324080691476573479e+00,-1.630870482466355131e+00,-1.704232290319998233e+00,-1.747858039461605228e+00,-1.763955387985675305e+00,-1.753282736311726708e+00,-1.811776809853305803e+00,-1.850295615298754415e+00,-1.870073880696550006e+00,-1.871705792727905715e+00,-1.910978734107705135e+00,-1.931153892665564475e+00,-1.932829397377746394e+00,-1.916053780258442085e+00,-2.008989969322470426e+00,-2.059662656566645378e+00,-2.071176181519398085e+00,-2.044192320930839912e+00,-1.891535017110703931e+00,-1.757702774744670959e+00,-1.647290264379651203e+00,-1.565261394553827623e+00,-1.554190151722587343e+00,-1.483499430430201826e+00,-1.343813167968803679e+00,-1.109367765292618380e+00,-6.294134009706966459e-01,2.063308968796064846e-01,9.250967004317195430e-01,1.471080035929896779e+00,2.591493559582335848e+00,3.753076181252938515e+00,4.920652665880152377e+00,6.072090735354556124e+00,6.117543393485903813e+00,5.952569964905374711e+00,5.580672686485603329e+00
-7.110276332555278689e-01,-6.944008955693896645e-01,-6.127558316560636209e-01,-4.305712619715688638e-01,4.795793303642763294e-02,-4.465020199353575969e-01,-5.374563684685059739e-01,-4.247872333208678186e-01,7.498113257905189566e-02,4.961747114867023356e-01,6.618772405686800253e-01,4.951162188955584575e-01,7.353292947188642958e-02,-6.681435963382083010e-01,-8.753222267258637945e-01,-9.139949807131489967e-01,-8.087084380870981359e-01,-7.122665728105975758e-01,-6.962495587290663535e-01,-7.657210129639062668e-01,-9.011211548596044230e-01,-6.733189696934331891e-01,-5.155363421376804034e-01,-4.992766678731620500e-01,-6.354973233637650765e-01,-7.862485445758402580e-01,-8.556385952330132216e-01,-8.635095502752723196e-01,-8.116531199597883939e-01,-6.516411261142761591e-01,-5.208351447233502407e-01,3.531997151649557409e-01,1.020227849671036413e+00,1.754643016931976218e+00,2.630087269918667925e+00,3.646021736042851291e+00,4.804026777280827609e+00,5.146008032683019096e+00,5.385010145930174907e+00,5.518042824648309974e+00,5.543510795016753256e+00,5.506862597179569718e+00,5.618326809977212122e+00,5.879665580117613644e+00,6.294853387513364318e+00,6.201463346289045830e+00,6.229368554476596209e+00,6.378893536322304492e+00,6.651748277257679476e+00,7.318331153732722250e+00,7.251573569573061206e+00,6.455669572198833528e+00,4.984761138455898966e+00,3.512686655833821447e+00,2.503276249023774547e+00,1.897258464450828352e+00,1.644842980135201582e+00,5.668456836939065324e-01,-3.965444856685877428e-01,-9.421877803196763157e-01,-1.247563047663020841e+00,-1.256413718491306231e+00,-1.374751412258822247e+00,-1.578135481629400427e+00,-1.838555381440344361e+00,-1.885671467247456157e+00,-1.921880028671627105e+00,-1.947789459174242399e+00,-1.963807444832989857e+00,-1.990860600897528476e+00,-2.015660480592196269e+00,-2.038289332461601155e+00,-2.058818744237300713e+00,-2.096861842579599067e+00,-2.112583774105015078e+00,-2.106484386094350292e+00,-2.078371570631396992e+00,-2.178054189330593360e+00,-2.218944333845278560e+00,-2.204316243359689675e+00,-2.133028008200190229e+00,-1.959823170056472552e+00,-1.829179664527821769e+00,-1.750652062936037590e+00,-1.731346313973744833e+00,-1.744604802758309869e+00,-1.687131397540467592e+00,-1.551083286992977817e+00,-1.312245003676381749e+00,-1.035432167685924387e+00,-6.907207087097605447e-01,1.243487227540997914e-01,6.695942212590568765e-01,1.657310093619725588e+00,2.667854955110668946e+00,3.636154610959139166e+00,4.527015573470587029e+00,4.809995147058858223e+00,4.871924011818819622e+00,4.711064054748517194e+00
1.403584742133902052e-01,7.460698227550928430e-02,4.664508491579206356e-02,4.933497899634219780e-02,8.352321817929922454e-02,-4.284971406465868937e-01,-5.503608544574143391e-01,-4.697157125311253179e-01,3.167736817298877350e-02,3.578904202322279460e-01,4.758920300852558238e-01,3.189195508116580147e-01,-1.194518297167167786e-01,-6.616699672165566870e-01,-7.697160493818987481e-01,-6.915458720156059114e-01,-3.084247635868484494e-01,7.753072833758939408e-02,1.254888715722186632e-01,4.736032820934078791e-02,-4.235427091730863958e-01,1.270503217869272949e-01,2.230556133599886359e-01,9.188405561867833693e-02,-5.167751103941602420e-01,-8.157991343172505960e-01,-9.019595681750152139e-01,-8.432467135613141984e-01,-5.984397208418393843e-01,-3.929139360751074395e-01,-3.197055342084945684e-01,3.361933464265038918e-01,6.885543476971052179e-01,1.060949228046778492e+00,1.581140750591636168e+00,2.266872358398400511e+00,3.134439772173913674e+00,3.793846845085185659e+00,4.304555526721859593e+00,4.652497996547388937e+00,4.829233874278301641e+00,4.707561904145140197e+00,4.754754809417010897e+00,4.971810950144062602e+00,5.363176500489713838e+00,4.866216255177137739e+00,4.585640976209227837e+00,4.514225852718327658e+00,4.650049028110732507e+00,5.440503991271598672e+00,5.376221438205672776e+00,4.463699640526173518e+00,2.808059606450016510e+00,1.617510480639200665e+00,8.620018804512628030e-01,4.634904018125131087e-01,3.450360828735776764e-01,-6.330163083710638183e-01,-1.051871915824629911e+00,-1.300118685141684827e+00,-1.467082769009856680e+00,-1.424726584536004426e+00,-1.492149880340119861e+00,-1.655997622362977761e+00,-1.891374214771375240e+00,-1.945514633496836732e+00,-2.002902154610211927e+00,-2.063265851914803495e+00,-2.126352274049813307e+00,-2.135142236623996048e+00,-2.156041958278537063e+00,-2.188704561854406982e+00,-2.232613842627056755e+00,-2.269211591034193010e+00,-2.280633844618022099e+00,-2.267261130811730752e+00,-2.228647157156435021e+00,-2.310368371349125649e+00,-2.319126860592517936e+00,-2.255772662232466530e+00,-2.113831766198845941e+00,-1.936591300374829183e+00,-1.829710679974903886e+00,-1.805727182874420578e+00,-1.867836803459973716e+00,-1.892982528128554165e+00,-1.836167964272661157e+00,-1.689143021778581222e+00,-1.424239065889634004e+00,-1.269571520227184447e+00,-1.072095807479314544e+00,-7.236868431639937871e-01,4.163523520700171399e-02,6.766820529207066004e-01,1.348350310606860392e+00,1.932587631441195386e+00,2.383314525149204499e+00,3.210925848497331980e+00,3.848528964804733832e+00,4.267856272390258887e+00
1.008034612488358128e+00,9.151914603156627859e-01,7.657885879424354281e-01,5.669126309396841368e-01,3.315070001244330711e-01,4.761898646992610180e-03,-4.023190240534565976e-01,-3.373179354291186427e-01,9.969803617062990286e-02,1.989457002528172425e-01,1.017367872800818834e-01,-4.291568479754455101e-01,-8.716696957193988959e-01,-9.765612312541344098e-01,-9.683658173557440074e-01,-8.437947688501908905e-01,-5.257790463077256504e-01,-3.847320352803353938e-01,-3.104472200759632594e-01,-3.485969276716233134e-01,-4.727005009078708575e-01,1.324477093273590811e-01,2.644587092278000151e-01,1.475827942391451653e-01,-4.330821329812962195e-01,-7.983293565406418546e-01,-9.177309839037733896e-01,-8.956904185123345519e-01,-7.193213902756113720e-01,-6.444031885559871053e-01,-6.257429378818717414e-01,1.018644472657666694e-01,5.161770673240924090e-01,8.375275346526499520e-01,1.259087363314085994e+00,1.789732975911472845e+00,2.437660759230383167e+00,3.226523617191242810e+00,3.793074976946617216e+00,4.109780660752146098e+00,4.163429191965011711e+00,4.106084372332304611e+00,4.139366945490890792e+00,4.263712614389386424e+00,4.480713192425858082e+00,4.165533591933292534e+00,3.942001234842704704e+00,3.807314294929264875e+00,3.759692463148342156e+00,3.792201183402656994e+00,3.297254600870363817e+00,2.322655736112447133e+00,1.000107396685311123e+00,1.318464512387577392e-01,-6.511643267178870431e-01,-9.301207977798259252e-01,-1.060946399672690443e+00,-1.308220722930456548e+00,-1.506248384638144477e+00,-1.672613365945468056e+00,-1.816038349553204423e+00,-1.821667943590604910e+00,-1.869914033962928768e+00,-1.957628279363981871e+00,-2.079823082372115550e+00,-2.110048495394300172e+00,-2.150456620179711731e+00,-2.200486564613572948e+00,-2.259499278651363685e+00,-2.291347011362600661e+00,-2.329012880968523991e+00,-2.372219764258146846e+00,-2.420670972507280805e+00,-2.460048427087479617e+00,-2.482209715813064044e+00,-2.487614999577488994e+00,-2.476374002882844039e+00,-2.496789788423793066e+00,-2.465429449183599075e+00,-2.380247374985894560e+00,-2.235098395877421762e+00,-2.111266351589049517e+00,-2.029751913814030750e+00,-1.995747106246826164e+00,-2.011662657787013586e+00,-1.993957497631104081e+00,-1.922864587840940942e+00,-1.792041241482727587e+00,-1.586782047530797657e+00,-1.483899534691586863e+00,-1.374583142216549980e+00,-1.213140450522401048e+00,-1.059004057092546747e+00,-7.908377705634622723e-01,-3.890465951805694433e-01,2.226835117321890323e-01,6.756711089099554091e-01,1.773085048088885562e+00,2.848746454724563115e+00,3.815405244876027613e+00
1.424323554912293233e+00,1.441443452035487294e+00,1.270989638333272387e+00,9.281371970777687608e-01,4.539529670363675051e-01,4.058750292416919009e-02,-3.625966507517500159e-01,-3.064615520953207772e-01,1.252045132417294038e-01,1.178695617712938043e-01,-1.609369452901732722e-01,-6.559674621143032347e-01,-1.016075747030641185e+00,-1.046956856179603212e+00,-1.004541499489144396e+00,-8.782737729131706583e-01,-6.187909555538040340e-01,-6.150619235273706575e-01,-6.030009698826700459e-01,-5.820904108417750411e-01,-5.513242239523912236e-01,8.829844597632637015e-02,2.243502399551197957e-01,1.117043506855666113e-01,-4.945427369149805741e-01,-8.424559905019384232e-01,-9.672756020808565003e-01,-9.603345781446173124e-01,-8.182868266876583974e-01,-8.232604780373593556e-01,-8.314303271200551571e-01,-3.378962317513738434e-01,3.293265581309314793e-01,6.410259159696750642e-01,1.018101279217173083e+00,1.458771856821472257e+00,1.962986917246261065e+00,2.842517196637145194e+00,3.429203306544796881e+00,3.680293603617459830e+00,3.580285135862427470e+00,3.592796665502647535e+00,3.621965839854977443e+00,3.667873065948588529e+00,3.730643335515168690e+00,3.566299946058810288e+00,3.377341985340799546e+00,3.164696420004244004e+00,2.929486560768386205e+00,2.457508844178740937e+00,1.775205271899812143e+00,9.401617097003845958e-01,1.015395089870532869e-01,-7.764788021799577944e-01,-1.113006638031159401e+00,-1.321799924278197036e+00,-1.458777954589422388e+00,-1.599881329567376609e+00,-1.748163409945280300e+00,-1.901945908356961645e+00,-2.059997344666037122e+00,-2.109046996134626095e+00,-2.156077258522254514e+00,-2.201217571815236695e+00,-2.244581964009884523e+00,-2.256301362265922705e+00,-2.283817253075700382e+00,-2.326569237613187457e+00,-2.383737685494855540e+00,-2.422985244103521563e+00,-2.462818492910287649e+00,-2.503209472034025662e+00,-2.544131617806614454e+00,-2.575566933053977436e+00,-2.596525477862576370e+00,-2.607259918068877358e+00,-2.607896507950078657e+00,-2.595054873332188983e+00,-2.546288676264318873e+00,-2.459461908218640414e+00,-2.330324089247004071e+00,-2.250873602900707926e+00,-2.188248689038219119e+00,-2.143924300774560088e+00,-2.119049131888598669e+00,-2.066400617276856977e+00,-1.985199264407318642e+00,-1.871732632701948562e+00,-1.719625627232916232e+00,-1.623312028619800396e+00,-1.538125412845962492e+00,-1.431711579091647923e+00,-1.358508911026552024e+00,-1.226272205147095562e+00,-1.044682287365605200e+00,-7.799994503817837543e-01,-2.342172160573845752e-01,8.477282752743121597e-01,1.952905503633545203e+00,3.051441184084696001e+00
1.216509995402208943e+00,1.455302023043828497e+00,1.384416759519286000e+00,1.013943355150925596e+00,4.118974211040548616e-01,1.629903266660248607e-03,-4.601567908683745767e-01,-4.012963127791612794e-01,9.961532333810889372e-02,9.922081495731904788e-02,-8.762958221929599556e-02,-5.809795674720449332e-01,-9.121810869710310632e-01,-9.301331122237400661e-01,-8.980960976391105799e-01,-8.101612912540255840e-01,-6.438181095700797885e-01,-7.493684528961372937e-01,-7.820747712020649223e-01,-7.515087270782851991e-01,-6.487883596120833651e-01,1.095958363856770583e-02,1.119650832445078514e-01,6.797790571321691948e-03,-6.618864471388549164e-01,-9.395399037863128022e-01,-1.045804406815227017e+00,-1.034895428740583601e+00,-9.025742651709134368e-01,-9.705093492561328583e-01,-1.000688823881488831e+00,-6.379473707686680317e-01,1.405891731221069751e-01,4.705667551696040563e-01,8.509919496819704499e-01,1.260456276048154356e+00,1.688755099443480123e+00,2.630020558102921235e+00,3.205222517470985633e+00,3.358032407646522000e+00,3.075691220036203433e+00,3.163027269422550969e+00,3.197148517555049363e+00,3.177707961284856442e+00,3.104902752630305240e+00,3.062804500134872487e+00,2.887756818597829955e+00,2.584606911757028058e+00,2.162681639945026379e+00,1.417422282576542125e+00,7.526370319905496542e-01,2.016393997689672479e-01,-4.845519111185299654e-01,-9.657818671827989032e-01,-1.247525335956740200e+00,-1.451049654971622527e+00,-1.606365938071697252e+00,-1.716171924092833700e+00,-1.862339352062360565e+00,-2.037055938010446265e+00,-2.233632281749887039e+00,-2.327801805626980691e+00,-2.383858891863154028e+00,-2.404470644482811004e+00,-2.390554085954532226e+00,-2.387634968434717564e+00,-2.405346077273848859e+00,-2.443238806332122870e+00,-2.500395785155587358e+00,-2.533888606589674186e+00,-2.563598781745758615e+00,-2.589656504618702559e+00,-2.612171082651712162e+00,-2.625726858216673065e+00,-2.634962843183051184e+00,-2.639924377331014149e+00,-2.640635554781102456e+00,-2.615120199037484383e+00,-2.567894148408802479e+00,-2.497726213825096409e+00,-2.402607188202952493e+00,-2.361640313709246541e+00,-2.313754449536837843e+00,-2.258509540614985767e+00,-2.195350096961508957e+00,-2.113248181820728266e+00,-2.025422543992524638e+00,-1.931092400550141530e+00,-1.829251762666006309e+00,-1.706272013655335096e+00,-1.605752886575215754e+00,-1.502660149868520367e+00,-1.446908472566921899e+00,-1.379601427044210959e+00,-1.244949388867310436e+00,-1.016533707263041819e+00,-5.946641816899506106e-01,3.459803070056920449e-01,1.167826643125120301e+00,2.026328924371072926e+00
4.570426402215733708e-01,9.532759308876093129e-01,1.081911863534228857e+00,8.068324429580071566e-01,2.165624012449434976e-01,-4.467546231916395549e-01,-6.345584451041572649e-01,-5.613764626118562528e-01,3.154588478000291962e-02,1.379235874201182876e-01,1.467027914318692894e-01,5.211276400841467066e-02,-3.984988000068207525e-01,-5.106453580022212169e-01,-5.745879266214706238e-01,-6.057880032789603186e-01,-6.092964304358449157e-01,-8.353289557050187497e-01,-9.167714058950892086e-01,-8.940515530016872603e-01,-7.578585425479138493e-01,-3.884333357276016363e-01,-2.049872043230402396e-01,-4.977624568084286216e-01,-8.764265997331612823e-01,-1.075332118992627262e+00,-1.147381566706030753e+00,-1.117389576270812368e+00,-9.759939460687303558e-01,-1.098930032489288111e+00,-1.149721455165599204e+00,-8.470891624785580332e-01,-1.419186142249002913e-01,3.253086264159226193e-01,7.515471249988061597e-01,1.184894049084861845e+00,1.599563866202619256e+00,2.581678948950450803e+00,3.115891495836839997e+00,3.137933828530197200e+00,2.645475964194564877e+00,2.812254752217055565e+00,2.859787285063400297e+00,2.786843875938227910e+00,2.595322115423693177e+00,2.649377390809734223e+00,2.469262266261629257e+00,2.065262821312920494e+00,1.464427782693244140e+00,6.533277712171895457e-01,1.672403519067907629e-01,-2.446302457031142019e-01,-4.308139301533237542e-01,-8.897887181760558706e-01,-1.173295377578731369e+00,-1.392944680372064647e+00,-1.575672072983792527e+00,-1.693611192967073187e+00,-1.872293208696396594e+00,-2.096242219005934437e+00,-2.352566177003355907e+00,-2.496040893061017840e+00,-2.568836450458857446e+00,-2.576949616368126250e+00,-2.521004955987624196e+00,-2.506395692683688114e+00,-2.516757674728759664e+00,-2.551786719755877897e+00,-2.610490026365241967e+00,-2.626684803866843776e+00,-2.635145603939109904e+00,-2.635946900648086011e+00,-2.629095697401465870e+00,-2.614292980056667659e+00,-2.600888109199289477e+00,-2.588902798309923092e+00,-2.578356843639309393e+00,-2.558826064234037911e+00,-2.531763293158062922e+00,-2.496923637174146560e+00,-2.453975888001485473e+00,-2.447485361070954379e+00,-2.411425888277268559e+00,-2.344433476318801723e+00,-2.243739094312874549e+00,-2.136184824171029284e+00,-2.044839678337176281e+00,-1.971957465210236959e+00,-1.919642260033753933e+00,-1.740868908339456400e+00,-1.589753583475171927e+00,-1.447852959933102923e+00,-1.365826706753334063e+00,-1.350590281509567836e+00,-1.235706660635348397e+00,-9.869716919811162281e-01,-4.068422512579048522e-01,1.644700250339009018e-01,5.087290872817030740e-01,8.446037155642382999e-01
1.539624225130436543e-02,3.773667578707912695e-01,5.452572011802614416e-01,4.272648982966665843e-01,7.901757225199602941e-02,-6.283139817744225475e-01,-8.284944843833839112e-01,-8.623223783672655518e-01,-7.525747673361717904e-01,-2.232872357021077336e-01,2.256382045815522874e-01,4.150959663941213851e-01,4.449194880139171748e-01,2.203498605033857582e-01,1.057438601735884443e-01,7.490414268357824257e-02,1.158847380019294299e-01,-4.520542099710430084e-01,-6.922668965781134665e-01,-8.039357836875477004e-01,-8.399945674460047584e-01,-6.101949571450947518e-01,-5.232051544140285948e-01,-6.401625707420817157e-01,-8.834768451105073916e-01,-1.004104306597538354e+00,-1.016588313398745447e+00,-9.253163551348088101e-01,-6.902906148506640083e-01,-8.702594920028277059e-01,-1.000582703701253351e+00,-7.984009366529942753e-01,-5.339927195343935340e-01,5.302394819374325885e-02,4.127156929458804524e-01,8.845514163237768734e-01,1.437798820250581366e+00,2.214225341022947546e+00,2.503812400530315507e+00,2.263861820481547937e+00,1.529223247562737198e+00,1.443584385638654544e+00,1.354070669155097661e+00,1.260915130686900198e+00,1.164382294962744480e+00,1.393437097569483418e+00,1.473975268250073745e+00,1.400597437091507746e+00,1.178207003932703278e+00,4.473711066486031340e-01,2.988714942415906725e-02,-5.052141018618953039e-01,-6.489989031062117775e-01,-8.783525335479698271e-01,-1.104725053027281856e+00,-1.329639945632289821e+00,-1.553730349801686339e+00,-1.734168568961663270e+00,-1.930564309740534723e+00,-2.138525610158333645e+00,-2.354990513643724359e+00,-2.503575904216306380e+00,-2.594195067131405796e+00,-2.632840202864806134e+00,-2.621810590155079002e+00,-2.642466194127355728e+00,-2.677056586251683967e+00,-2.725051175173072160e+00,-2.785757241947291796e+00,-2.755409285583935830e+00,-2.717306427486304354e+00,-2.671116822677436886e+00,-2.616412220900643959e+00,-2.557877753860349657e+00,-2.519927070812320924e+00,-2.503496440028532444e+00,-2.509008679291878874e+00,-2.486685114669177743e+00,-2.458727668866328653e+00,-2.424941488604774875e+00,-2.385078883400072680e+00,-2.405034672633207471e+00,-2.380237093175355145e+00,-2.309244856986969019e+00,-2.187565163817212444e+00,-2.051929951622033066e+00,-1.939980256781945522e+00,-1.856006992704245961e+00,-1.803921341731268724e+00,-1.636234049124752676e+00,-1.493788726465884675e+00,-1.359756655167666528e+00,-1.281267806209349214e+00,-1.230457823525494376e+00,-1.097558493635410359e+00,-8.446725789659105255e-01,-2.013400397143227660e-01,2.132920552636474731e-02,1.112599139143058413e-01,2.588285989423143030e-01
-3.102063255914953022e-01,1.864461379464984470e-01,3.292248887938518109e-01,2.735985407589517915e-01,5.007114460497908565e-02,-6.278103473413497726e-01,-8.373549654456085012e-01,-9.109998373819450102e-01,-8.834126605892677064e-01,-3.346910469799430077e-01,2.812829738169867477e-01,5.759610136954427251e-01,6.746796738894241807e-01,3.185923380464696919e-01,1.536655890980722916e-01,1.328618695058568222e-01,2.471162958854131453e-01,-3.923327874908684454e-02,-5.460243158554016762e-01,-7.503202757617625229e-01,-8.922181001879245787e-01,-7.584836911483240351e-01,-7.136182034674724006e-01,-7.732486211105814577e-01,-9.172158845799653903e-01,-9.958987375744461357e-01,-9.825875714033966979e-01,-8.730848176712061592e-01,-6.182318219058152708e-01,-7.544731281301890746e-01,-9.072194155864274911e-01,-7.608900216028278152e-01,-6.714400070805556231e-01,-3.838866500714004926e-01,1.578070860085539484e-01,6.131519030428084216e-01,1.251047227097590531e+00,1.972334232468002213e+00,2.182451604512172239e+00,1.844546583845769749e+00,1.020748594107966367e+00,7.713903454130298654e-01,6.167741982515311250e-01,5.470255823445105969e-01,5.567388224883137449e-01,7.520284021357421800e-01,8.672641195523282942e-01,8.942652609643959583e-01,8.313152074664490465e-01,1.949397959528587354e-01,-4.426813215382437439e-01,-7.323475281921139057e-01,-8.664595570656135060e-01,-9.532715560284944489e-01,-1.133643568692773496e+00,-1.371136538768780611e+00,-1.641136697797605626e+00,-1.869512733832270346e+00,-2.073207677397145066e+00,-2.258908208810262330e+00,-2.430741970797555940e+00,-2.559353494766708259e+00,-2.645583781645082233e+00,-2.693506308175938280e+00,-2.705157734886231236e+00,-2.742380733926403025e+00,-2.783606381846233546e+00,-2.828659677010984641e+00,-2.877360826814938211e+00,-2.831047470541077971e+00,-2.776692953632888816e+00,-2.713814154024119851e+00,-2.641802470272593517e+00,-2.547883707573961320e+00,-2.493377468452906864e+00,-2.480882853046824543e+00,-2.511027076393285817e+00,-2.485415607343873567e+00,-2.456273180880360396e+00,-2.423472420315739839e+00,-2.386862509652626585e+00,-2.430837635419553777e+00,-2.415723490921857675e+00,-2.340375560555166601e+00,-2.198609776501687652e+00,-2.047718920858168534e+00,-1.928605911218205460e+00,-1.847427642741276133e+00,-1.809297427726267671e+00,-1.659965842155158411e+00,-1.532432295572218717e+00,-1.412918335467705511e+00,-1.339565712837313738e+00,-1.256342929314022028e+00,-1.120067560695074294e+00,-9.071370637679675442e-01,-5.323875391646569755e-01,-6.347329514301657261e-01,-6.222928839871975093e-01,-4.863373657733514044e-01
8.518625979978397544e-02,2.879463723583565171e-01,3.703243855920476668e-01,3.047266509360097575e-01,1.121000038147885874e-01,-4.446254726733648299e-01,-6.685395296922890251e-01,-7.576978231494793103e-01,-7.610351347229848962e-01,6.821434866885764045e-03,3.093558567073647625e-01,4.616709199350471637e-01,3.804050912288371999e-01,2.138308902731658745e-02,-3.960678856017809113e-01,-3.840515616340518523e-01,3.876550934357901601e-02,-2.988865812742570460e-01,-5.451578696939626267e-01,-7.411690058295884453e-01,-9.196392582993037079e-01,-8.716417431161259666e-01,-8.651830292373868803e-01,-9.011567025877799120e-01,-9.748766660239717163e-01,-1.052190893831120411e+00,-1.054781526776679579e+00,-9.832393861428881943e-01,-8.183474450140603151e-01,-8.020483584270400312e-01,-8.874138762047338869e-01,-7.362667703813253750e-01,-7.191601134944268781e-01,-5.666562167956705753e-01,6.244325052897166037e-04,3.729746966853073054e-01,1.042186099721972292e+00,1.848464395113950109e+00,2.130992891001900702e+00,1.834183666517046341e+00,1.016760281532196997e+00,6.405143695259576386e-01,4.549601647902322132e-01,4.315121482925207141e-01,5.657102985337302270e-01,5.912461623559671642e-01,5.792136722547960304e-01,5.300869307509074035e-01,4.459375418526829726e-01,-2.322424072792352578e-01,-7.277899241841662148e-01,-9.503256268772808379e-01,-1.083632043548901080e+00,-1.096993355504916945e+00,-1.253320763892742384e+00,-1.508812099419344355e+00,-1.822223220264332921e+00,-2.081232947582453807e+00,-2.284472897202809882e+00,-2.445885314630443119e+00,-2.573353113141441106e+00,-2.660340983565647743e+00,-2.721528468954491853e+00,-2.758632889745746830e+00,-2.772621284634922301e+00,-2.809998732458390158e+00,-2.842457873476894381e+00,-2.870165578190515543e+00,-2.893258358258813612e+00,-2.857817595122120302e+00,-2.814747052160829099e+00,-2.763690035009350954e+00,-2.704194211382627167e+00,-2.584849345020920008e+00,-2.522957635494865958e+00,-2.522751199586594772e+00,-2.584244820057952641e+00,-2.555123181401870003e+00,-2.524605700099001648e+00,-2.492641108643967041e+00,-2.459172978609998950e+00,-2.522800842767664697e+00,-2.515064394651810975e+00,-2.435283595323898265e+00,-2.275894534791644386e+00,-2.124027862446592252e+00,-2.012302512632798024e+00,-1.947638842083144750e+00,-1.934761311112443982e+00,-1.807013767751401101e+00,-1.696510654184246958e+00,-1.593260298215974702e+00,-1.524417894221633984e+00,-1.420284270910163515e+00,-1.294882632460992555e+00,-1.141223370417030258e+00,-9.456302967891307976e-01,-1.053952102957536052e+00,-1.047484772753916715e+00,-9.238206534136569337e-01
6.891140416139317493e-01,7.377384883309234809e-01,6.832023175136410220e-01,5.305271285370674050e-01,2.972146311621055581e-01,1.292357906402641365e-01,4.006924592794149087e-02,9.369785697686811368e-03,1.642598812691864821e-02,2.612384964895479444e-01,3.080957022392591949e-01,1.188622555740462966e-01,-5.310788976037362774e-01,-8.745623353692958402e-01,-9.875996726596151243e-01,-9.557856979743638570e-01,-7.611693894866569110e-01,-6.839114150719912688e-01,-6.902152593572465911e-01,-7.780524926012027942e-01,-9.244677142257775593e-01,-9.621451769555888767e-01,-9.957990936359216727e-01,-1.025825538133799508e+00,-1.052535006991705435e+00,-1.163657854871435138e+00,-1.214375971516915120e+00,-1.212294573081977189e+00,-1.157128773466064242e+00,-9.897005547012112103e-01,-9.457984488977042581e-01,-7.258439585939689964e-01,-6.958641977531802025e-01,-6.525216416202259673e-01,-4.290319230545946438e-01,1.687889652115227845e-01,8.151784115720410728e-01,1.838327267536102649e+00,2.345782072834833976e+00,2.231501270630883216e+00,1.516256786991204697e+00,1.005644722978281891e+00,7.970633028436555634e-01,8.568808688472782098e-01,1.195609418941823821e+00,8.594513155980683106e-01,5.558670605716437008e-01,2.899437011182704471e-01,7.409500270335814265e-02,-6.688758431026505802e-01,-9.699610840203987117e-01,-1.164301925563947737e+00,-1.300660717312534631e+00,-1.286664859494105917e+00,-1.441323361319287732e+00,-1.719720330531443020e+00,-2.072578445012958070e+00,-2.348765374829882457e+00,-2.547343240976989165e+00,-2.685583328587385132e+00,-2.772525828248641133e+00,-2.801653765397488005e+00,-2.820045927145120146e+00,-2.827911791133412400e+00,-2.825339275704199959e+00,-2.847621805459256805e+00,-2.856560656856536706e+00,-2.852281287137994337e+00,-2.834723833268032678e+00,-2.837103313360266554e+00,-2.832328696945149105e+00,-2.820363650573347591e+00,-2.801116033385449899e+00,-2.666822613354026039e+00,-2.606757474939395802e+00,-2.626019055273036251e+00,-2.722924436632500278e+00,-2.690296275922664737e+00,-2.658271949073231166e+00,-2.626873540269711871e+00,-2.596123759812301035e+00,-2.674107182604927413e+00,-2.671144959317754086e+00,-2.586959042031804046e+00,-2.413063260348483396e+00,-2.272760715779443164e+00,-2.180148004469224521e+00,-2.141421595353472540e+00,-2.159482496839346677e+00,-2.051023730403642720e+00,-1.954687631582175511e+00,-1.864231376944406771e+00,-1.797188927984440632e+00,-1.682395915932848762e+00,-1.571987188540135527e+00,-1.466953016231342666e+00,-1.368531443056851593e+00,-1.441437697911755356e+00,-1.399041011060722095e+00,-1.229470476116148348e+00
5.994099578683840246e-01,8.003450307307536926e-01,9.575634520769411573e-01,1.064567440774531804e+00,1.117665724806278682e+00,7.474337678483503611e-01,4.308372487496951453e-01,1.731822752905773088e-01,6.352833836198052970e-05,-2.358825412219210660e-01,-4.952736247657219537e-01,-7.540074680667278040e-01,-1.012588005453736839e+00,-1.109885238159319387e+00,-1.104224892919114742e+00,-9.938493777044686839e-01,-7.328827710814027618e-01,-5.087045275894255258e-01,-3.244912769231285687e-01,-2.768754835221386990e-01,-4.157843553084135113e-01,-6.517153401598442253e-01,-8.195241896152658523e-01,-9.557916448755586769e-01,-1.072607196390070072e+00,-1.144712222183621231e+00,-1.175379432404697777e+00,-1.167877739002695092e+00,-1.121441430049173293e+00,-1.009827841243128965e+00,-9.996039627131226846e-01,-8.003478468778889576e-01,-7.419880406966508080e-01,-7.526461804526197730e-01,-6.779849464285574445e-01,-4.796959416529402165e-01,7.224272826985121687e-02,9.285310873078511662e-01,1.644379701520664039e+00,2.028643291151390304e+00,2.026343646419101141e+00,1.833675164095410981e+00,1.735836516004194197e+00,1.729884436701512263e+00,1.815633649455319354e+00,1.227146167295765311e+00,6.968868211727283768e-01,2.453408315151281716e-01,-3.073701795771776046e-01,-8.709659912205620635e-01,-1.148486938107748268e+00,-1.332590670354998563e+00,-1.459078031155991217e+00,-1.519021072458409893e+00,-1.696805357282982429e+00,-1.960632272201146886e+00,-2.280836793251527439e+00,-2.501247083280737638e+00,-2.677794167080642662e+00,-2.818732049404848450e+00,-2.929205227855030014e+00,-2.924198485791321023e+00,-2.895581823329699045e+00,-2.842642292088911837e+00,-2.763982651868447160e+00,-2.773488433771790884e+00,-2.776807045882752956e+00,-2.773960694246464520e+00,-2.764930339402167370e+00,-2.794158509106351218e+00,-2.809565721227621271e+00,-2.811379214087663225e+00,-2.799625404323239586e+00,-2.668131816030002046e+00,-2.610895368236834546e+00,-2.632763588520446341e+00,-2.731837450359567487e+00,-2.713557812700693628e+00,-2.682596473667052450e+00,-2.638507033944167635e+00,-2.580616706486031031e+00,-2.615701413598195302e+00,-2.599313118559515079e+00,-2.530451935019274678e+00,-2.404614066015832829e+00,-2.305839930680416927e+00,-2.235470331836091784e+00,-2.196237296441002851e+00,-2.189815005701993833e+00,-2.095166068822016836e+00,-2.006961132922181257e+00,-1.921756952148161002e+00,-1.851044005795045022e+00,-1.769424381215991326e+00,-1.709832261371600381e+00,-1.674620874988230312e+00,-1.665337437157787370e+00,-1.718651653592030204e+00,-1.688260122648146622e+00,-1.569307167379036638e+00
5.867124050186681705e-01,7.819780397705550223e-01,9.888162070065354969e-01,1.206008479607302730e+00,1.432665583447615187e+00,1.048223649866244278e+00,6.569074213019572284e-01,2.803849071995420661e-01,-1.427262999672437860e-01,-5.667900179113279924e-01,-7.957161456452380710e-01,-9.778090697125423336e-01,-1.135821333449371195e+00,-1.163105398348499131e+00,-1.117932055233272992e+00,-9.904361861678451229e-01,-7.391816041577848884e-01,-4.571700295144179305e-01,-3.186590296862813754e-02,4.094210047790297624e-02,1.083060049736546404e-02,-5.344611166921715562e-01,-7.702750945657693693e-01,-9.467051111489546145e-01,-1.092899457295862131e+00,-1.135156722361849724e+00,-1.153661275862879032e+00,-1.149560737440348035e+00,-1.122607426146728038e+00,-1.058059898241669350e+00,-1.067209251146159721e+00,-8.738009337949615984e-01,-7.748159397441850560e-01,-7.621909554214795213e-01,-7.066247702022424582e-01,-5.962300566835352367e-01,-3.865878896379811303e-01,4.510928421130154242e-01,1.110416687624919518e+00,1.695932254722226862e+00,2.149494790624562057e+00,2.298489784857557172e+00,2.316679784432639000e+00,2.203429735763894115e+00,1.962797849065217148e+00,1.287619362678281476e+00,6.811637768685342431e-01,1.761820412015118742e-01,-4.842275999084966753e-01,-9.798633726433761959e-01,-1.247843559263892121e+00,-1.423172627111032096e+00,-1.537872739706793279e+00,-1.639295291107351504e+00,-1.826970524105750115e+00,-2.077654758867983453e+00,-2.371449568245835415e+00,-2.553724760895163204e+00,-2.718226278094092674e+00,-2.868014101825505424e+00,-3.005289091328014361e+00,-2.999705140772340073e+00,-2.957903999672612638e+00,-2.878308173487487132e+00,-2.757646921277795204e+00,-2.752785527742743987e+00,-2.749185595136792948e+00,-2.746852083150117085e+00,-2.745788220592655815e+00,-2.788979319576016191e+00,-2.811713934927384972e+00,-2.814487834912742681e+00,-2.797360400099283773e+00,-2.666155390311312434e+00,-2.609145178992319458e+00,-2.631157009256955170e+00,-2.730280295536613444e+00,-2.730332981884170174e+00,-2.704552113260207502e+00,-2.652184442364961203e+00,-2.571606256974804161e+00,-2.562503278428216902e+00,-2.531987134443832055e+00,-2.479267257076805731e+00,-2.402882623231426873e+00,-2.341614278994573972e+00,-2.288850052541853142e+00,-2.245189590060543416e+00,-2.211172229492186947e+00,-2.131651013182210175e+00,-2.053119534369433286e+00,-1.975094831428039654e+00,-1.903323279392384437e+00,-1.825637724837407605e+00,-1.783108789272349837e+00,-1.778260684480590381e+00,-1.811395987937679974e+00,-1.850127045292204286e+00,-1.822680436075324373e+00,-1.725901819370656121e+00
6.500864512216415481e-01,6.838085642218544313e-01,7.716462010099995883e-01,9.172570273086724235e-01,1.125766935000537705e+00,9.170188389092983616e-01,6.290737859957273859e-01,2.893579926360873578e-01,-1.583273136087898214e-01,-6.746429000984143221e-01,-8.796072438112807479e-01,-9.903358624077043260e-01,-1.037454429683442703e+00,-1.061963302471868875e+00,-1.032826951316120567e+00,-9.450968523774612162e-01,-7.792276322253031129e-01,-5.642758564341293637e-01,-4.044250797960055599e-01,-3.776942041705953490e-01,-5.056550625106344121e-01,-7.130713453136690028e-01,-8.699007453252129984e-01,-1.000228339866640725e+00,-1.113399757038098015e+00,-1.135228497406664427e+00,-1.150200672975972616e+00,-1.158582133188259089e+00,-1.160515684947954096e+00,-1.130806184068748443e+00,-1.146175037382077599e+00,-9.464479066086947112e-01,-7.959946265830608603e-01,-6.849531600860961911e-01,-5.504846281585297207e-01,-3.677294229862817510e-01,1.474189409784656783e-02,3.054309456810657686e-01,7.261819016205008914e-01,1.249669177226454764e+00,1.870408940704484602e+00,2.333691902706243493e+00,2.446185663604161231e+00,2.197093971625152520e+00,1.611279486318598630e+00,1.030749695892487550e+00,5.110541730549955641e-01,8.912221821247576226e-02,-5.434242950478003209e-01,-1.025693086182210223e+00,-1.286506280082156728e+00,-1.450677865480382467e+00,-1.549241714243991375e+00,-1.671854826017828977e+00,-1.858341103841207431e+00,-2.091685728304712555e+00,-2.358018477998567342e+00,-2.512472553952729726e+00,-2.672728022145463012e+00,-2.837802209557636512e+00,-3.006901600483725012e+00,-3.031690330983883630e+00,-3.007833931295654573e+00,-2.934146097386511443e+00,-2.806704713831905895e+00,-2.786704174357053088e+00,-2.775253319182102718e+00,-2.772458086500678487e+00,-2.778344601141873760e+00,-2.821773701719118232e+00,-2.838716783591077597e+00,-2.829649657444959665e+00,-2.794319137647617080e+00,-2.660886014811595146e+00,-2.601495023383156635e+00,-2.621183961805414686e+00,-2.718234978554231240e+00,-2.740740888798129049e+00,-2.724196144490637295e+00,-2.667874330064818889e+00,-2.569160766011620023e+00,-2.514843280331111597e+00,-2.469535558705146183e+00,-2.433740843816610600e+00,-2.407883423690335700e+00,-2.379962228314414840e+00,-2.340420089833354922e+00,-2.288654746386936001e+00,-2.223812775841294442e+00,-2.160866469926309819e+00,-2.093567347163102887e+00,-2.024576019021250950e+00,-1.954153224885782469e+00,-1.853841256006366178e+00,-1.799720950034718658e+00,-1.795973026773879377e+00,-1.842904839428133767e+00,-1.866912523109282462e+00,-1.836611265786312952e+00,-1.749180941240911835e+00
7.939874313062897926e-01,5.127547140237531664e-01,3.491163785159088762e-01,2.847302198680579099e-01,3.096888714052795644e-01,3.955703035584655636e-01,3.551924950837745398e-01,1.978850087880110464e-01,-1.168388466705691242e-01,-6.762521186666533568e-01,-8.166578966512667570e-01,-8.015552960192483534e-01,-6.196767264001817876e-01,-7.461239215254900081e-01,-8.186518844312429266e-01,-8.511575941462287132e-01,-8.482546391517620243e-01,-7.661518878099525809e-01,-7.700176731654938544e-01,-8.586917014970084638e-01,-1.010079887381505337e+00,-1.045561599980829870e+00,-1.077882485984315020e+00,-1.107319358452835800e+00,-1.134096813941601445e+00,-1.144925736726733145e+00,-1.165160313513309953e+00,-1.194322579579752297e+00,-1.231778610928949025e+00,-1.223702538173645715e+00,-1.234322880784990639e+00,-1.018461280594984864e+00,-8.064424143974435744e-01,-4.807843694493172393e-01,7.745421980068928347e-02,3.489018619813986088e-01,6.099410106150714439e-01,4.385491955173408951e-01,4.725640803624907571e-01,7.199798416337579443e-01,1.225670320187335793e+00,1.935010134575870122e+00,2.107917739459473250e+00,1.711788841734775968e+00,8.282004575747816677e-01,5.051616753792187442e-01,2.182791658468068996e-01,3.396884561994280727e-03,-5.262862482513416262e-01,-1.017017203317930329e+00,-1.270030246839602306e+00,-1.418779659858070863e+00,-1.494724281552685996e+00,-1.621990610968448765e+00,-1.796101196293735214e+00,-2.004888668639019933e+00,-2.238671646534585502e+00,-2.372606480537907014e+00,-2.536679827170176704e+00,-2.725454061847821574e+00,-2.934165538019712915e+00,-3.021536492998181611e+00,-3.045981082758071778e+00,-3.009033289696770197e+00,-2.908354263921392402e+00,-2.873310646824196457e+00,-2.853539209023595369e+00,-2.849357885088309228e+00,-2.860835034180234882e+00,-2.891249783412733088e+00,-2.889877630389872554e+00,-2.856672770623867486e+00,-2.790499078923402543e+00,-2.652304063133248846e+00,-2.587892578675931698e+00,-2.602748273619796215e+00,-2.695560901650663865e+00,-2.744853964342243380e+00,-2.741578257406324326e+00,-2.685541424417252632e+00,-2.573298950355198844e+00,-2.473041629878713010e+00,-2.412336993140829833e+00,-2.394195498280560219e+00,-2.419574724956154110e+00,-2.420761474362225663e+00,-2.390297576901993626e+00,-2.326940270141917733e+00,-2.227885019418680557e+00,-2.183104310951779592e+00,-2.128630130660294828e+00,-2.070477040229214527e+00,-2.003644148234244415e+00,-1.855312787970497590e+00,-1.761272833171458885e+00,-1.730398574819165480e+00,-1.766006015225316972e+00,-1.772269833308809384e+00,-1.732960804637063701e+00,-1.644814764910541127e+00
1.116422000536858583e+00,6.496464827601349246e-01,2.577646472183953708e-01,-1.352213230741202143e-01,-6.006849272891099378e-01,-3.382457983638252341e-01,3.921502763835962684e-03,6.613180713278930464e-03,-3.097003649988309681e-01,-5.424287436210900593e-01,-5.383815608641016048e-01,-2.877353047450763035e-01,2.472400785272373114e-01,-4.410038739786664164e-01,-8.130961188796803629e-01,-1.035838929795654284e+00,-1.195824145388113768e+00,-1.058107662318609865e+00,-9.892596722237922968e-01,-1.003555682952434580e+00,-1.097752136937461209e+00,-1.151499366600193364e+00,-1.176204679573351175e+00,-1.173703422956401621e+00,-1.143817127738792960e+00,-1.176235047616367657e+00,-1.205206670998908880e+00,-1.230975352899564612e+00,-1.253738603584845457e+00,-1.190956308451766255e+00,-1.134110565449469643e+00,-7.831700719112623110e-01,-1.263658165985167836e-01,4.356075487372114696e-01,9.115294089317856896e-01,1.290913176476212065e+00,1.534525683581775102e+00,1.000699868306739626e+00,6.642056061819356927e-01,4.946516976626198492e-01,4.696779575912368720e-01,1.014170393609836740e+00,1.176657566664968124e+00,9.124466538528073212e-01,3.006246901802122062e-01,-1.214690644297287819e-01,-5.983486572437404227e-01,-8.046648823443717236e-01,-9.397595997765154641e-01,-1.073039872964278718e+00,-1.177829150982007134e+00,-1.261248954476281048e+00,-1.327334478481120961e+00,-1.505191117104140330e+00,-1.712288765289174952e+00,-1.939281920697371708e+00,-2.179964439075486649e+00,-2.365425685347784412e+00,-2.559132715247890211e+00,-2.759349506619392933e+00,-2.964757495848354019e+00,-3.056099036453379103e+00,-3.089495633514753425e+00,-3.066840859235344219e+00,-2.986859568127907760e+00,-2.951965396944107756e+00,-2.936558008849491586e+00,-2.940943689271414030e+00,-2.965034609770544893e+00,-2.966571000605733754e+00,-2.947297821619048630e+00,-2.906801176584602686e+00,-2.844174642010336207e+00,-2.728473582206723869e+00,-2.672859879646648285e+00,-2.681075332124918109e+00,-2.752548471818819120e+00,-2.789138751228029900e+00,-2.770305691341022225e+00,-2.694887574526242169e+00,-2.557884129740882528e+00,-2.490612556781915288e+00,-2.464403546160695235e+00,-2.480559012031210209e+00,-2.538270164801075701e+00,-2.542917659861349655e+00,-2.511922195070025232e+00,-2.443928005746352827e+00,-2.335706140419321120e+00,-2.286708684796953328e+00,-2.244719558740955634e+00,-2.220108024781212386e+00,-2.204422701437836363e+00,-2.035788711888364855e+00,-1.886721851257642912e+00,-1.762194779329864014e+00,-1.667713694944419789e+00,-1.702852402629908113e+00,-1.700150204533459553e+00,-1.659422250906414487e+00
1.222072526469087705e+00,7.793612065587285365e-01,3.197719726945479901e-01,-2.802898193407237226e-01,-7.883547471756984226e-01,-5.707410627202306186e-01,-3.824317611976184028e-01,-2.881480197529461829e-01,-3.688780945238052111e-01,-4.705481701409615081e-01,-3.680146826784633785e-01,7.200732587280618546e-02,4.741865974733392441e-01,-2.871034471820849143e-01,-8.154528265030995815e-01,-1.094121616220168125e+00,-1.295702429521860433e+00,-1.130181670817707706e+00,-1.037392685596560726e+00,-1.037045664905682285e+00,-1.129225836563960472e+00,-1.212307524626060173e+00,-1.241678462594234755e+00,-1.221220127814728551e+00,-1.148272233659460628e+00,-1.198715820022507872e+00,-1.233211981576663785e+00,-1.253078467450985167e+00,-1.259008014044167290e+00,-1.187102417185421199e+00,-1.109060056463623267e+00,-6.931794376426598792e-01,1.485040048064620033e-01,8.128939133030164133e-01,1.393031476582033301e+00,1.780735864315569961e+00,1.935728083292757473e+00,1.345215502696357257e+00,8.861943658957459613e-01,5.463388788417232744e-01,3.119554595826395382e-01,7.352154954935931075e-01,8.692826594137285090e-01,6.749399460947477225e-01,2.131509875367739448e-01,-4.476378374954391171e-01,-7.624386401991114504e-01,-9.232715671332645258e-01,-1.006842963615344866e+00,-9.864066453430934134e-01,-1.022818791351162382e+00,-1.110501410748243378e+00,-1.238613490954858065e+00,-1.453019841243956334e+00,-1.677794656098945181e+00,-1.909279478476648251e+00,-2.145303315557564261e+00,-2.366525531982538233e+00,-2.575372465465622263e+00,-2.774639984358690192e+00,-2.966259296537609558e+00,-3.052191291105360804e+00,-3.084746636543488130e+00,-3.065626300904378265e+00,-2.993840358618057973e+00,-2.952428876284947545e+00,-2.934998683073471337e+00,-2.941976052461293900e+00,-2.973189153141687857e+00,-2.954405829045156029e+00,-2.924699991478725281e+00,-2.883734116165769024e+00,-2.831019434840412963e+00,-2.734146630781432386e+00,-2.685246998123155038e+00,-2.686941005565995688e+00,-2.739134786388070619e+00,-2.776635057100191872e+00,-2.754586228409615867e+00,-2.671514275889161905e+00,-2.521394842131004399e+00,-2.466246840135110308e+00,-2.453050354130503319e+00,-2.482474499404765389e+00,-2.553046078190104762e+00,-2.567114532426962636e+00,-2.540439692538792205e+00,-2.471702794400761238e+00,-2.357227108248912018e+00,-2.294832473209623913e+00,-2.255166335215407436e+00,-2.252996283707910496e+00,-2.274923223509861092e+00,-2.130446477608321842e+00,-1.982594965009810917e+00,-1.830551140189789372e+00,-1.673172507142452137e+00,-1.712754934961280728e+00,-1.724017742279490673e+00,-1.707521409540189161e+00
