-9999 -9999 -9999 -9999 -9999 -9999 -9999 -9999 -9999 -9999 -9999 -9999 -9999 -9999 -9999 -9999 -9999 -9999 -9999 -9999 -9999 -9999 -9999 -9999 -9999 -9999 -9999 -9999 -9999 -9999 -9999 -9999 -9999 -9999 -9999 -9999 -9999 -9999 -9999 -9999 -9999 -9999 -9999 -9999 -9999 -9999 -9999 -9999 -9999 -9999 -9999 -9999 1916 1920 1924 1914 1910 1911 1897 1883 1893 1880 1862 1852 1839 1822 1820 1811 1800 1801 1781 1751 1725 1712 1695 1677 1684 1686 1685 1688 1679 1650 1654 1657 1633 1630 1648 1646 1653 1654 1653 1649 1649 1655 1660 1656 1650 1639 1628 1612 1604 1599 1594 1588 1576 1567 1557 1544 1539 1533 1526 1527 1526 1518 1510 1508 1507 1502 1494 1487 1480 1472 1463 1452 1443 1434 1422 1413 1404 1396 1383 1369 1358 1349 1342 1333 1323 1312 1294 1267 1249 1230 1207 1178 1159 1145 1132 1118 1117 1101 1082 1077 1071 1065 1058 1049 1046 1046 1043 1041 1029 1017 1013 1027 1013 1013 1029 1014 1015 1014 993 989 998 987 990 1009 1037 1023 1025 1032 1029
-9999 -9999 -9999 -9999 -9999 -9999 -9999 -9999 -9999 -9999 -9999 -9999 -9999 -9999 -9999 -9999 -9999 -9999 -9999 -9999 -9999 -9999 -9999 -9999 -9999 -9999 -9999 -9999 -9999 -9999 -9999 -9999 -9999 -9999 -9999 -9999 -9999 -9999 -9999 -9999 -9999 -9999 -9999 -9999 -9999 -9999 -9999 -9999 -9999 -9999 -9999 -9999 1929 1926 1917 1910 1911 1917 1909 1897 1891 1900 1877 1877 1861 1840 1824 1820 1804 1790 1780 1773 1744 1734 1716 1694 1670 1660 1667 1669 1669 1655 1635 1652 1652 1636 1638 1637 1634 1633 1629 1632 1646 1646 1633 1634 1635 1630 1619 1607 1590 1583 1578 1574 1566 1556 1548 1539 1529 1515 1509 1511 1511 1509 1502 1495 1493 1491 1484 1476 1468 1460 1452 1444 1438 1428 1419 1412 1405 1396 1383 1367 1357 1349 1341 1331 1318 1307 1290 1274 1257 1232 1210 1185 1160 1137 1121 1103 1101 1091 1074 1068 1063 1058 1052 1045 1036 1045 1037 1029 1019 1014 1013 1020 997 997 1009 995 995 994 1015 1014 1001 1020 993 992 995 986 985 994 1002
-9999 -9999 -9999 -9999 -9999 -9999 -9999 -9999 -9999 -9999 -9999 -9999 -9999 -9999 -9999 -9999 -9999 -9999 -9999 -9999 -9999 -9999 -9999 -9999 -9999 -9999 -9999 -9999 -9999 -9999 -9999 -9999 -9999 -9999 -9999 -9999 -9999 -9999 -9999 -9999 -9999 -9999 -9999 -9999 -9999 -9999 -9999 -9999 -9999 -9999 -9999 -9999 1938 1932 1923 1914 1916 1922 1918 1912 1903 1898 1894 1889 1875 1863 1844 1829 1814 1798 1783 1769 1759 1744 1724 1710 1699 1687 1679 1654 1655 1645 1636 1631 1651 1646 1626 1614 1611 1615 1626 1627 1628 1633 1631 1620 1615 1610 1599 1590 1579 1569 1562 1555 1548 1541 1534 1527 1519 1509 1500 1497 1496 1495 1494 1480 1474 1473 1469 1462 1453 1444 1440 1434 1428 1420 1414 1411 1403 1393 1379 1363 1353 1350 1341 1329 1317 1309 1291 1287 1263 1242 1217 1191 1166 1144 1121 1106 1080 1083 1068 1060 1059 1048 1047 1033 1032 1035 1031 1018 1010 1009 1007 1009 1018 1007 996 1028 1015 1017 1048 1052 1043 1051 1012 992 990 1009 1001 985 983
-9999 -9999 -9999 -9999 -9999 -9999 -9999 -9999 -9999 -9999 -9999 -9999 -9999 -9999 -9999 -9999 -9999 -9999 -9999 -9999 -9999 -9999 -9999 -9999 -9999 -9999 -9999 -9999 -9999 -9999 -9999 -9999 -9999 -9999 -9999 -9999 -9999 -9999 -9999 -9999 -9999 -9999 -9999 -9999 -9999 -9999 -9999 -9999 -9999 -9999 -9999 1940 1939 1939 1935 1925 1924 1931 1926 1914 1917 1905 1898 1895 1888 1880 1867 1848 1827 1813 1800 1787 1771 1764 1748 1736 1714 1692 1685 1668 1667 1668 1654 1640 1632 1634 1636 1618 1610 1610 1605 1598 1618 1614 1615 1605 1596 1587 1576 1568 1560 1554 1548 1542 1535 1527 1520 1514 1507 1499 1491 1486 1481 1476 1470 1469 1460 1448 1444 1442 1435 1429 1427 1421 1416 1413 1405 1403 1400 1387 1372 1357 1349 1344 1336 1326 1314 1302 1296 1284 1269 1248 1223 1195 1168 1144 1117 1097 1084 1072 1066 1052 1053 1045 1041 1029 1025 1017 1018 1010 1012 1013 1009 1011 1026 1026 1026 1029 1039 1050 1056 1056 1056 1051 1042 1037 1031 1037 1034 999 980
-9999 -9999 -9999 -9999 -9999 -9999 -9999 -9999 -9999 -9999 -9999 -9999 -9999 -9999 -9999 -9999 -9999 -9999 -9999 -9999 -9999 -9999 -9999 -9999 -9999 -9999 -9999 -9999 -9999 -9999 -9999 -9999 -9999 -9999 -9999 -9999 -9999 -9999 -9999 -9999 -9999 -9999 -9999 -9999 -9999 -9999 -9999 -9999 -9999 -9999 -9999 1946 1937 1938 1939 1934 1929 1940 1938 1922 1913 1912 1904 1908 1887 1892 1883 1866 1846 1828 1819 1806 1787 1770 1762 1742 1735 1712 1702 1689 1685 1676 1661 1660 1645 1634 1632 1622 1611 1602 1595 1592 1583 1591 1595 1589 1575 1559 1551 1543 1536 1537 1533 1527 1520 1513 1507 1502 1496 1489 1482 1476 1468 1461 1450 1443 1444 1443 1433 1425 1419 1414 1409 1406 1404 1399 1391 1385 1384 1376 1360 1347 1341 1334 1327 1320 1310 1302 1289 1280 1270 1248 1221 1195 1171 1144 1120 1095 1078 1066 1066 1054 1044 1031 1024 1023 1016 1012 1014 1017 1017 1019 1022 1032 1032 1036 1041 1047 1059 1064 1060 1056 1054 1050 1043 1039 1036 1036 1037 993 982
-9999 -9999 -9999 -9999 -9999 -9999 -9999 -9999 -9999 -9999 -9999 -9999 -9999 -9999 -9999 -9999 -9999 -9999 -9999 -9999 -9999 -9999 -9999 -9999 -9999 -9999 -9999 -9999 -9999 -9999 -9999 -9999 -9999 -9999 -9999 -9999 -9999 -9999 -9999 -9999 -9999 -9999 -9999 -9999 -9999 -9999 -9999 -9999 -9999 -9999 1960 1950 1939 1937 1936 1939 1934 1931 1924 1919 1918 1921 1909 1900 1892 1892 1881 1873 1852 1838 1832 1824 1812 1788 1774 1756 1745 1741 1729 1712 1697 1686 1674 1674 1682 1672 1667 1654 1650 1629 1607 1594 1584 1571 1568 1564 1554 1541 1530 1522 1514 1511 1510 1509 1502 1494 1489 1485 1480 1476 1468 1462 1455 1448 1439 1428 1424 1420 1415 1407 1413 1399 1393 1390 1386 1383 1378 1374 1366 1356 1347 1338 1334 1328 1322 1317 1308 1295 1287 1280 1268 1249 1234 1215 1190 1162 1131 1103 1082 1064 1054 1045 1039 1048 1043 1030 1014 1014 1018 1019 1019 1021 1027 1039 1052 1055 1056 1061 1064 1064 1060 1057 1053 1049 1042 1031 1011 1013 1020 985 -9999
-9999 -9999 -9999 -9999 -9999 -9999 -9999 -9999 -9999 -9999 -9999 -9999 -9999 -9999 -9999 -9999 -9999 -9999 -9999 -9999 -9999 -9999 -9999 -9999 -9999 -9999 -9999 -9999 -9999 -9999 -9999 -9999 -9999 -9999 -9999 -9999 -9999 -9999 -9999 -9999 -9999 -9999 -9999 -9999 -9999 -9999 -9999 -9999 -9999 1970 1965 1957 1950 1940 1939 1941 1931 1924 1921 1920 1924 1928 1927 1915 1905 1903 1888 1869 1865 1840 1847 1830 1810 1807 1811 1790 1774 1750 1747 1741 1721 1702 1681 1671 1665 1665 1677 1664 1655 1659 1643 1624 1607 1587 1576 1563 1566 1554 1554 1541 1517 1495 1485 1481 1473 1466 1461 1459 1455 1448 1440 1439 1435 1430 1419 1408 1405 1396 1386 1378 1379 1388 1388 1378 1371 1366 1361 1358 1352 1344 1336 1329 1325 1320 1316 1314 1305 1295 1289 1280 1264 1252 1241 1225 1203 1175 1142 1112 1085 1068 1053 1041 1044 1049 1036 1026 1018 1015 1020 1020 1022 1030 1041 1049 1057 1061 1065 1065 1063 1062 1059 1056 1053 1048 1040 1010 985 985 1001 982 -9999
-9999 -9999 -9999 -9999 -9999 -9999 -9999 -9999 -9999 -9999 -9999 -9999 -9999 -9999 -9999 -9999 -9999 -9999 -9999 -9999 -9999 -9999 -9999 -9999 -9999 -9999 -9999 -9999 -9999 -9999 -9999 -9999 -9999 -9999 -9999 -9999 -9999 -9999 -9999 -9999 -9999 -9999 -9999 -9999 -9999 -9999 -9999 -9999 -9999 1959 1959 1956 1950 1943 1941 1937 1930 1937 1933 1933 1944 1941 1934 1924 1924 1911 1893 1882 1872 1861 1857 1839 1835 1828 1824 1803 1776 1766 1766 1744 1740 1723 1700 1694 1679 1665 1657 1659 1668 1655 1644 1637 1611 1603 1595 1569 1556 1547 1553 1548 1534 1513 1491 1469 1459 1451 1439 1435 1433 1427 1422 1417 1409 1404 1393 1387 1386 1381 1374 1369 1367 1355 1356 1360 1364 1353 1344 1338 1334 1328 1321 1315 1313 1310 1308 1307 1301 1294 1286 1273 1264 1255 1246 1231 1212 1187 1155 1123 1096 1071 1054 1056 1059 1052 1039 1016 1018 1017 1022 1025 1029 1040 1051 1060 1067 1071 1072 1067 1063 1060 1058 1055 1052 1047 1041 1001 995 -9999 986 -9999 -9999
-9999 -9999 -9999 -9999 -9999 -9999 -9999 -9999 -9999 -9999 -9999 -9999 -9999 -9999 -9999 -9999 -9999 -9999 -9999 -9999 -9999 -9999 -9999 -9999 -9999 -9999 -9999 -9999 -9999 -9999 -9999 -9999 -9999 -9999 -9999 -9999 -9999 -9999 -9999 -9999 -9999 -9999 -9999 -9999 -9999 -9999 -9999 -9999 1957 1956 1949 1944 1943 1946 1946 1943 1937 1938 1948 1949 1942 1951 1947 1937 1928 1926 1911 1893 1890 1871 1856 1856 1854 1860 1836 1812 1799 1787 1775 1767 1757 1741 1726 1712 1698 1679 1664 1658 1658 1649 1639 1641 1622 1597 1577 1568 1554 1543 1536 1534 1528 1522 1507 1489 1472 1462 1448 1438 1425 1417 1406 1404 1398 1392 1385 1380 1374 1370 1367 1355 1351 1341 1337 1333 1334 1330 1321 1316 1312 1306 1300 1299 1298 1296 1296 1296 1296 1292 1284 1272 1264 1259 1249 1231 1216 1191 1163 1131 1105 1080 1066 1062 1055 1045 1032 1020 1032 1029 1030 1036 1043 1053 1064 1072 1076 1077 1075 1070 1061 1058 1057 1055 1053 1050 1042 1002 991 -9999 -9999 -9999 -9999
-9999 -9999 -9999 -9999 -9999 -9999 -9999 -9999 -9999 -9999 -9999 -9999 -9999 -9999 -9999 -9999 -9999 -9999 -9999 -9999 -9999 -9999 -9999 -9999 -9999 -9999 -9999 -9999 -9999 -9999 -9999 -9999 -9999 -9999 -9999 -9999 -9999 -9999 -9999 -9999 -9999 -9999 -9999 -9999 -9999 -9999 -9999 -9999 1960 1953 1942 1940 1943 1948 1954 1956 1953 1951 1946 1936 1938 1931 1932 1940 1923 1916 1915 1901 1887 1878 1881 1869 1864 1872 1843 1819 1811 1812 1801 1780 1768 1756 1745 1727 1715 1699 1688 1673 1662 1654 1638 1633 1622 1608 1591 1575 1558 1549 1532 1525 1508 1494 1487 1482 1476 1466 1450 1443 1430 1420 1408 1396 1389 1386 1383 1381 1377 1373 1370 1363 1349 1339 1329 1324 1317 1307 1297 1295 1289 1283 1281 1282 1280 1278 1279 1281 1284 1284 1277 1266 1262 1257 1249 1230 1210 1189 1166 1134 1109 1088 1072 1063 1058 1051 1024 1024 1046 1042 1045 1049 1055 1064 1074 1080 1082 1081 1076 1070 1063 1059 1056 1053 1054 1055 1028 998 992 -9999 -9999 -9999 -9999
-9999 -9999 -9999 -9999 -9999 -9999 -9999 -9999 -9999 -9999 -9999 -9999 -9999 -9999 -9999 -9999 -9999 -9999 -9999 -9999 -9999 -9999 -9999 -9999 -9999 -9999 -9999 -9999 -9999 -9999 -9999 -9999 -9999 -9999 -9999 -9999 -9999 -9999 -9999 -9999 -9999 -9999 -9999 -9999 -9999 -9999 -9999 -9999 1959 1952 1947 1942 1943 1949 1955 1955 1945 1948 1948 1938 1934 1941 1942 1931 1926 1916 1914 1903 1902 1897 1889 1883 1875 1857 1851 1830 1818 1816 1814 1798 1781 1768 1762 1740 1726 1714 1706 1695 1682 1665 1663 1644 1636 1626 1614 1592 1572 1561 1543 1529 1507 1493 1479 1468 1468 1464 1449 1439 1430 1422 1414 1402 1393 1387 1380 1378 1376 1376 1369 1362 1352 1341 1328 1319 1310 1301 1289 1279 1276 1270 1267 1266 1264 1263 1259 1258 1262 1266 1265 1257 1249 1229 1221 1211 1205 1194 1172 1150 1133 1113 1095 1078 1062 1057 1028 1038 1054 1052 1053 1058 1065 1074 1083 1085 1083 1080 1075 1069 1064 1061 1044 1026 1022 1008 997 992 -9999 -9999 -9999 -9999 -9999
-9999 -9999 -9999 -9999 -9999 -9999 -9999 -9999 -9999 -9999 -9999 -9999 -9999 -9999 -9999 -9999 -9999 -9999 -9999 -9999 -9999 -9999 -9999 -9999 -9999 -9999 -9999 -9999 -9999 -9999 -9999 -9999 -9999 -9999 -9999 -9999 -9999 -9999 -9999 -9999 -9999 -9999 -9999 -9999 -9999 -9999 -9999 1954 1953 1950 1950 1947 1945 1946 1949 1946 1940 1942 1940 1940 1931 1930 1945 1952 1950 1934 1925 1920 1918 1909 1900 1890 1876 1871 1863 1859 1832 1818 1817 1815 1797 1791 1770 1756 1741 1727 1719 1709 1697 1690 1681 1662 1647 1628 1605 1602 1588 1569 1550 1540 1527 1504 1486 1473 1464 1458 1450 1439 1428 1417 1404 1403 1397 1392 1384 1377 1370 1373 1369 1361 1353 1337 1324 1313 1305 1298 1287 1275 1267 1262 1254 1251 1247 1241 1234 1231 1232 1235 1228 1220 1216 1207 1202 1187 1183 1178 1182 1172 1157 1138 1118 1097 1074 1057 1037 1044 1057 1059 1061 1067 1074 1082 1086 1085 1081 1077 1072 1068 1064 1062 1044 1010 996 -9999 -9999 -9999 -9999 -9999 -9999 -9999 -9999
-9999 -9999 -9999 -9999 -9999 -9999 -9999 -9999 -9999 -9999 -9999 -9999 -9999 -9999 -9999 -9999 -9999 -9999 -9999 -9999 -9999 -9999 -9999 -9999 -9999 -9999 -9999 -9999 -9999 -9999 -9999 -9999 -9999 -9999 -9999 -9999 -9999 -9999 -9999 -9999 -9999 -9999 -9999 -9999 -9999 -9999 1963 1963 1962 1958 1956 1953 1947 1941 1939 1936 1939 1946 1949 1948 1936 1921 1925 1934 1945 1946 1936 1938 1929 1927 1913 1896 1887 1874 1864 1852 1846 1832 1835 1817 1814 1803 1786 1774 1755 1740 1728 1720 1710 1713 1694 1676 1660 1640 1619 1609 1606 1593 1568 1549 1523 1507 1490 1475 1469 1460 1451 1442 1432 1420 1406 1394 1385 1383 1379 1379 1369 1351 1343 1346 1340 1330 1317 1307 1300 1293 1284 1272 1261 1252 1245 1242 1236 1227 1217 1210 1208 1211 1196 1192 1191 1183 1180 1174 1175 1171 1172 1181 1171 1159 1138 1111 1086 1065 1041 1060 1061 1065 1069 1074 1081 1087 1086 1082 1079 1076 1071 1065 1062 1051 1028 1002 -9999 -9999 -9999 -9999 -9999 -9999 -9999 -9999 -9999
-9999 -9999 -9999 -9999 -9999 -9999 -9999 -9999 -9999 -9999 -9999 -9999 -9999 -9999 -9999 -9999 -9999 -9999 -9999 -9999 -9999 -9999 -9999 -9999 -9999 -9999 -9999 -9999 -9999 -9999 -9999 -9999 -9999 -9999 -9999 -9999 -9999 -9999 -9999 -9999 -9999 -9999 -9999 -9999 -9999 1972 1973 1974 1972 1969 1964 1960 1952 1943 1938 1939 1939 1941 1940 1938 1936 1935 1927 1924 1922 1931 1931 1933 1927 1923 1916 1904 1891 1889 1878 1872 1851 1835 1820 1810 1806 1798 1787 1771 1754 1751 1746 1732 1726 1712 1700 1681 1670 1651 1645 1624 1617 1600 1586 1567 1544 1518 1490 1468 1463 1452 1441 1440 1434 1423 1410 1390 1381 1375 1372 1369 1363 1358 1348 1336 1321 1319 1309 1300 1293 1287 1278 1268 1259 1250 1238 1236 1230 1218 1200 1189 1184 1176 1169 1165 1167 1168 1169 1174 1176 1172 1168 1172 1172 1161 1143 1114 1095 1074 1045 1062 1067 1071 1075 1080 1085 1088 1086 1083 1080 1077 1068 1039 1030 1033 1009 1017 -9999 -9999 -9999 -9999 -9999 -9999 -9999 -9999 -9999
-9999 -9999 -9999 -9999 -9999 -9999 -9999 -9999 -9999 -9999 -9999 -9999 -9999 -9999 -9999 -9999 -9999 -9999 -9999 -9999 -9999 -9999 -9999 -9999 -9999 -9999 -9999 -9999 -9999 -9999 -9999 -9999 -9999 -9999 -9999 -9999 -9999 -9999 -9999 -9999 -9999 -9999 -9999 -9999 1989 1986 1983 1980 1977 1975 1974 1970 1958 1947 1943 1950 1953 1951 1943 1949 1947 1945 1939 1928 1919 1909 1912 1910 1918 1918 1913 1904 1899 1894 1883 1866 1862 1848 1834 1821 1808 1796 1783 1785 1767 1754 1746 1737 1733 1717 1707 1694 1667 1656 1640 1627 1613 1606 1599 1581 1566 1542 1513 1487 1465 1448 1432 1415 1412 1405 1398 1381 1372 1369 1360 1354 1351 1348 1343 1330 1319 1306 1301 1294 1285 1276 1264 1257 1248 1239 1231 1222 1209 1198 1183 1173 1168 1161 1159 1161 1154 1162 1172 1175 1175 1173 1169 1161 1157 1148 1135 1114 1099 1082 1052 1068 1075 1077 1081 1085 1089 1089 1085 1080 1073 1062 1036 1010 1011 1010 1005 -9999 -9999 -9999 -9999 -9999 -9999 -9999 -9999 -9999 -9999
-9999 -9999 -9999 -9999 -9999 -9999 -9999 -9999 -9999 -9999 -9999 -9999 -9999 -9999 -9999 -9999 -9999 -9999 -9999 -9999 -9999 -9999 -9999 -9999 -9999 -9999 -9999 -9999 -9999 -9999 -9999 -9999 -9999 -9999 -9999 -9999 -9999 -9999 -9999 -9999 -9999 -9999 -9999 -9999 2003 1997 1991 1981 1973 1980 1987 1980 1966 1956 1956 1964 1959 1951 1955 1965 1955 1956 1947 1939 1917 1902 1896 1904 1897 1906 1901 1899 1894 1892 1884 1866 1848 1850 1842 1832 1819 1805 1790 1778 1764 1768 1758 1740 1725 1707 1694 1684 1673 1663 1652 1637 1627 1610 1591 1574 1561 1550 1529 1507 1484 1467 1454 1431 1400 1394 1384 1374 1374 1366 1357 1348 1339 1331 1323 1317 1309 1300 1292 1287 1278 1266 1250 1250 1244 1230 1213 1197 1185 1177 1168 1163 1158 1152 1154 1153 1159 1168 1170 1171 1172 1172 1169 1165 1154 1141 1128 1110 1095 1082 1057 1063 1081 1082 1086 1091 1093 1090 1077 1050 1031 1034 1015 1021 1014 1013 -9999 -9999 -9999 -9999 -9999 -9999 -9999 -9999 -9999 -9999 -9999
-9999 -9999 -9999 -9999 -9999 -9999 -9999 -9999 -9999 -9999 -9999 -9999 -9999 -9999 -9999 -9999 -9999 -9999 -9999 -9999 -9999 -9999 -9999 -9999 -9999 -9999 -9999 -9999 -9999 -9999 -9999 -9999 -9999 -9999 -9999 -9999 -9999 -9999 -9999 -9999 -9999 -9999 -9999 -9999 2022 2006 1993 1986 1986 1987 2002 1990 1975 1970 1972 1960 1961 1959 1966 1963 1957 1960 1945 1942 1933 1921 1901 1893 1897 1891 1890 1886 1892 1886 1882 1865 1862 1851 1842 1847 1834 1816 1805 1792 1790 1767 1754 1753 1738 1718 1703 1688 1676 1666 1652 1644 1628 1617 1599 1581 1564 1543 1516 1506 1487 1476 1458 1443 1420 1398 1392 1378 1363 1355 1349 1348 1339 1332 1314 1307 1297 1286 1282 1279 1271 1260 1245 1243 1234 1225 1204 1176 1167 1161 1156 1154 1150 1150 1154 1154 1155 1165 1161 1167 1167 1167 1161 1150 1139 1128 1119 1101 1088 1075 1068 1078 1083 1088 1093 1098 1096 1089 1066 1029 1015 1015 1016 -9999 -9999 -9999 -9999 -9999 -9999 -9999 -9999 -9999 -9999 -9999 -9999 -9999 -9999
-9999 -9999 -9999 -9999 -9999 -9999 -9999 -9999 -9999 -9999 -9999 -9999 -9999 -9999 -9999 -9999 -9999 -9999 -9999 -9999 -9999 -9999 -9999 -9999 -9999 -9999 -9999 -9999 -9999 -9999 -9999 -9999 -9999 -9999 -9999 -9999 -9999 -9999 -9999 -9999 -9999 -9999 -9999 -9999 -9999 2010 1998 1998 2002 2001 2011 2003 1990 1973 1969 1965 1973 1966 1966 1970 1955 1960 1943 1930 1937 1924 1913 1909 1900 1898 1901 1891 1889 1883 1877 1876 1860 1864 1850 1832 1824 1822 1812 1796 1781 1767 1761 1745 1727 1721 1715 1702 1689 1675 1660 1646 1621 1616 1601 1586 1570 1550 1526 1503 1482 1458 1439 1421 1407 1398 1386 1375 1356 1345 1336 1337 1336 1326 1307 1302 1292 1279 1272 1272 1263 1250 1232 1231 1217 1196 1168 1158 1155 1152 1150 1149 1148 1146 1153 1150 1157 1156 1149 1157 1157 1169 1153 1134 1119 1109 1096 1071 1072 1076 1078 1084 1090 1096 1101 1104 1100 1086 1052 1028 1017 -9999 -9999 -9999 -9999 -9999 -9999 -9999 -9999 -9999 -9999 -9999 -9999 -9999 -9999 -9999 -9999
-9999 -9999 -9999 -9999 -9999 -9999 -9999 -9999 -9999 -9999 -9999 -9999 -9999 -9999 -9999 -9999 -9999 -9999 -9999 -9999 -9999 -9999 -9999 -9999 -9999 -9999 -9999 -9999 -9999 -9999 -9999 -9999 -9999 -9999 -9999 -9999 -9999 -9999 -9999 -9999 -9999 -9999 -9999 -9999 -9999 2013 2011 2020 2021 2023 2022 2014 2001 1984 1982 1988 1982 1968 1974 1974 1970 1955 1939 1937 1923 1923 1918 1913 1914 1907 1898 1898 1878 1869 1877 1871 1856 1850 1845 1842 1826 1817 1815 1808 1785 1770 1757 1744 1726 1711 1699 1684 1677 1666 1649 1631 1616 1603 1590 1586 1575 1559 1537 1516 1491 1468 1449 1431 1413 1394 1389 1377 1360 1345 1339 1325 1312 1309 1299 1295 1289 1279 1273 1258 1251 1226 1216 1213 1178 1160 1151 1149 1148 1148 1146 1146 1145 1140 1141 1147 1149 1141 1130 1142 1141 1142 1123 1111 1099 1079 1079 1094 1087 1080 1088 1092 1098 1104 1109 1110 1101 1084 1068 1036 1017 -9999 -9999 -9999 -9999 -9999 -9999 -9999 -9999 -9999 -9999 -9999 -9999 -9999 -9999 -9999 -9999
-9999 -9999 -9999 -9999 -9999 -9999 -9999 -9999 -9999 -9999 -9999 -9999 -9999 -9999 -9999 -9999 -9999 -9999 -9999 -9999 -9999 -9999 -9999 -9999 -9999 -9999 -9999 -9999 -9999 -9999 -9999 -9999 -9999 -9999 -9999 -9999 -9999 -9999 -9999 -9999 -9999 -9999 -9999 -9999 -9999 2010 2019 2031 2041 2043 2023 2006 1996 1995 1997 1977 1982 1965 1963 1970 1960 1948 1943 1929 1915 1907 1914 1912 1907 1908 1897 1887 1886 1883 1866 1858 1869 1852 1846 1843 1838 1828 1810 1788 1787 1771 1765 1748 1732 1720 1700 1690 1673 1656 1642 1632 1611 1595 1590 1577 1558 1541 1523 1520 1502 1481 1466 1442 1422 1402 1387 1372 1363 1352 1343 1333 1318 1299 1286 1278 1274 1265 1253 1244 1229 1194 1185 1170 1154 1145 1142 1143 1143 1143 1143 1143 1145 1153 1133 1132 1122 1114 1112 1116 1116 1105 1098 1096 1085 1106 1105 1096 1090 1089 1092 1098 1104 1109 1110 1105 1087 1078 1071 1040 1017 -9999 -9999 -9999 -9999 -9999 -9999 -9999 -9999 -9999 -9999 -9999 -9999 -9999 -9999 -9999 -9999
-9999 -9999 -9999 -9999 -9999 -9999 -9999 -9999 -9999 -9999 -9999 -9999 -9999 -9999 -9999 -9999 -9999 -9999 -9999 -9999 -9999 -9999 -9999 -9999 -9999 -9999 -9999 -9999 -9999 -9999 -9999 -9999 -9999 -9999 -9999 -9999 -9999 -9999 -9999 -9999 -9999 -9999 -9999 -9999 -9999 -9999 2032 2046 2065 2043 2026 2014 2002 1994 1981 1969 1960 1969 1982 1974 1956 1939 1928 1929 1924 1916 1901 1905 1900 1904 1903 1886 1878 1872 1864 1870 1860 1856 1837 1831 1831 1819 1805 1797 1785 1770 1752 1744 1731 1720 1706 1693 1683 1677 1657 1636 1622 1603 1589 1572 1569 1547 1526 1504 1495 1476 1463 1449 1432 1411 1395 1379 1362 1342 1337 1330 1319 1301 1284 1266 1260 1254 1245 1232 1201 1173 1168 1161 1149 1141 1141 1141 1141 1142 1145 1149 1151 1147 1141 1138 1138 1135 1134 1125 1103 1106 1107 1106 1127 1117 1104 1094 1092 1090 1096 1105 1111 1113 1107 1090 1080 1079 1072 1047 1018 -9999 -9999 -9999 -9999 -9999 -9999 -9999 -9999 -9999 -9999 -9999 -9999 -9999 -9999 -9999 -9999
-9999 -9999 -9999 -9999 -9999 -9999 -9999 -9999 -9999 -9999 -9999 -9999 -9999 -9999 -9999 -9999 -9999 -9999 -9999 -9999 -9999 -9999 -9999 -9999 -9999 -9999 -9999 -9999 -9999 -9999 -9999 -9999 -9999 -9999 -9999 -9999 -9999 -9999 -9999 -9999 -9999 -9999 -9999 -9999 -9999 -9999 2055 2077 2061 2034 2009 2000 1991 1991 1974 1963 1957 1958 1960 1957 1958 1938 1933 1938 1928 1921 1905 1891 1898 1901 1892 1883 1865 1865 1870 1855 1860 1853 1838 1817 1815 1816 1807 1789 1774 1769 1754 1745 1732 1720 1710 1701 1685 1667 1665 1642 1621 1609 1599 1585 1559 1536 1524 1511 1497 1486 1464 1450 1435 1419 1403 1387 1372 1355 1332 1312 1294 1289 1279 1267 1257 1248 1233 1191 1170 1162 1161 1156 1147 1141 1142 1141 1142 1149 1150 1150 1153 1146 1154 1153 1145 1136 1136 1137 1132 1123 1115 1121 1121 1108 1100 1095 1093 1091 1103 1112 1116 1113 1101 1083 1082 1076 1068 1051 1023 -9999 -9999 -9999 -9999 -9999 -9999 -9999 -9999 -9999 -9999 -9999 -9999 -9999 -9999 -9999 -9999
-9999 -9999 -9999 -9999 -9999 -9999 -9999 -9999 -9999 -9999 -9999 -9999 -9999 -9999 -9999 -9999 -9999 -9999 -9999 -9999 -9999 -9999 -9999 -9999 -9999 -9999 -9999 -9999 -9999 -9999 -9999 -9999 -9999 -9999 -9999 -9999 -9999 -9999 -9999 -9999 -9999 -9999 -9999 -9999 -9999 2080 2073 2062 2051 2035 2008 1992 1993 1991 1976 1973 1957 1950 1952 1946 1939 1936 1934 1925 1910 1917 1911 1901 1899 1896 1887 1877 1867 1858 1863 1842 1839 1829 1834 1816 1807 1803 1804 1790 1774 1759 1759 1750 1734 1720 1706 1693 1678 1660 1646 1630 1622 1617 1600 1585 1571 1552 1522 1508 1494 1479 1469 1456 1440 1419 1409 1390 1371 1360 1339 1319 1300 1288 1282 1264 1261 1242 1195 1166 1155 1151 1153 1150 1145 1148 1146 1141 1142 1142 1140 1147 1143 1151 1150 1144 1137 1127 1128 1124 1118 1115 1110 1112 1108 1104 1098 1092 1097 1107 1119 1120 1115 1106 1095 1083 1082 1071 1062 1051 1024 -9999 -9999 -9999 -9999 -9999 -9999 -9999 -9999 -9999 -9999 -9999 -9999 -9999 -9999 -9999 -9999
-9999 -9999 -9999 -9999 -9999 -9999 -9999 -9999 -9999 -9999 -9999 -9999 -9999 -9999 -9999 -9999 -9999 -9999 -9999 -9999 -9999 -9999 -9999 -9999 -9999 -9999 -9999 -9999 -9999 -9999 -9999 -9999 -9999 -9999 -9999 -9999 -9999 -9999 -9999 -9999 -9999 -9999 -9999 -9999 -9999 2098 2085 2061 2038 2028 2018 2003 2007 2006 1990 1976 1959 1958 1955 1945 1932 1925 1917 1905 1899 1895 1894 1881 1892 1891 1877 1871 1871 1865 1855 1838 1828 1829 1808 1803 1801 1800 1787 1787 1771 1759 1749 1741 1727 1718 1706 1692 1677 1658 1639 1627 1616 1605 1589 1588 1575 1551 1527 1511 1497 1481 1468 1439 1424 1418 1398 1388 1378 1361 1341 1325 1306 1293 1273 1255 1239 1206 1182 1167 1155 1151 1151 1150 1156 1157 1151 1144 1136 1132 1132 1133 1131 1131 1137 1137 1130 1113 1111 1108 1102 1102 1097 1096 1095 1095 1096 1108 1118 1124 1126 1122 1106 1100 1092 1082 1068 1065 1063 1047 1029 -9999 -9999 -9999 -9999 -9999 -9999 -9999 -9999 -9999 -9999 -9999 -9999 -9999 -9999 -9999 -9999
-9999 -9999 -9999 -9999 -9999 -9999 -9999 -9999 -9999 -9999 -9999 -9999 -9999 -9999 -9999 -9999 -9999 -9999 -9999 -9999 -9999 -9999 -9999 -9999 -9999 -9999 -9999 -9999 -9999 -9999 -9999 -9999 -9999 -9999 -9999 -9999 -9999 -9999 -9999 -9999 -9999 -9999 -9999 -9999 -9999 2109 2082 2055 2031 2025 2027 2013 2020 2015 2000 1978 1970 1981 1963 1951 1941 1920 1908 1900 1894 1889 1874 1876 1867 1867 1866 1852 1852 1859 1845 1823 1818 1822 1813 1800 1804 1787 1775 1766 1756 1753 1746 1735 1720 1709 1703 1696 1677 1661 1644 1630 1620 1608 1592 1573 1553 1536 1528 1515 1502 1487 1469 1448 1428 1412 1395 1383 1367 1366 1344 1323 1308 1292 1285 1248 1216 1202 1180 1164 1159 1160 1162 1164 1165 1158 1149 1141 1136 1132 1127 1125 1126 1127 1122 1118 1112 1111 1104 1100 1102 1099 1098 1096 1094 1104 1113 1121 1127 1128 1124 1114 1100 1094 1093 1087 1070 1066 1054 1055 1032 -9999 -9999 -9999 -9999 -9999 -9999 -9999 -9999 -9999 -9999 -9999 -9999 -9999 -9999 -9999 -9999
-9999 -9999 -9999 -9999 -9999 -9999 -9999 -9999 -9999 -9999 -9999 -9999 -9999 -9999 -9999 -9999 -9999 -9999 -9999 -9999 -9999 -9999 -9999 -9999 -9999 -9999 -9999 -9999 -9999 -9999 -9999 -9999 -9999 -9999 -9999 -9999 -9999 -9999 -9999 -9999 -9999 -9999 -9999 -9999 -9999 2121 2094 2062 2032 2008 2008 2006 2029 2023 2012 1991 1973 1956 1943 1936 1932 1911 1902 1899 1886 1882 1868 1861 1860 1856 1848 1837 1831 1838 1838 1820 1808 1808 1803 1794 1786 1779 1773 1762 1751 1741 1740 1730 1716 1701 1690 1687 1681 1660 1646 1631 1617 1605 1592 1571 1552 1548 1525 1509 1494 1482 1466 1452 1436 1417 1402 1387 1365 1355 1350 1331 1313 1298 1283 1241 1229 1198 1178 1174 1171 1172 1172 1167 1160 1150 1146 1142 1139 1134 1129 1125 1121 1116 1114 1112 1111 1107 1103 1099 1098 1098 1097 1099 1108 1116 1122 1127 1129 1123 1112 1100 1099 1099 1089 1084 1068 1064 1063 1056 1036 -9999 -9999 -9999 -9999 -9999 -9999 -9999 -9999 -9999 -9999 -9999 -9999 -9999 -9999 -9999 -9999
-9999 -9999 -9999 -9999 -9999 -9999 -9999 -9999 -9999 -9999 -9999 -9999 -9999 -9999 -9999 -9999 -9999 -9999 -9999 -9999 -9999 -9999 -9999 -9999 -9999 -9999 -9999 -9999 -9999 -9999 -9999 -9999 -9999 -9999 -9999 -9999 -9999 -9999 -9999 -9999 -9999 -9999 -9999 -9999 -9999 2117 2101 2068 2033 2001 1983 1976 1986 2000 1996 1982 1964 1944 1940 1936 1915 1905 1900 1884 1874 1865 1860 1860 1851 1838 1836 1819 1809 1806 1811 1812 1803 1807 1794 1788 1777 1763 1746 1751 1749 1736 1727 1721 1705 1689 1686 1674 1662 1648 1650 1635 1618 1603 1592 1575 1556 1537 1528 1509 1487 1476 1463 1452 1440 1423 1408 1393 1375 1356 1340 1332 1324 1307 1264 1244 1234 1200 1188 1187 1180 1174 1169 1161 1157 1161 1158 1150 1145 1141 1136 1131 1128 1120 1118 1114 1115 1102 1101 1101 1100 1098 1104 1111 1115 1121 1126 1128 1122 1112 1104 1106 1104 1099 1080 1075 1071 1069 1065 1056 1036 -9999 -9999 -9999 -9999 -9999 -9999 -9999 -9999 -9999 -9999 -9999 -9999 -9999 -9999 -9999 -9999
-9999 -9999 -9999 -9999 -9999 -9999 -9999 -9999 -9999 -9999 -9999 -9999 -9999 -9999 -9999 -9999 -9999 -9999 -9999 -9999 -9999 -9999 -9999 -9999 -9999 -9999 -9999 -9999 -9999 -9999 -9999 -9999 -9999 -9999 -9999 -9999 -9999 -9999 -9999 -9999 -9999 -9999 -9999 -9999 -9999 2116 2109 2076 2038 2005 1980 1963 1960 1970 1979 1966 1961 1965 1958 1950 1925 1899 1876 1855 1859 1844 1814 1803 1820 1814 1822 1805 1790 1790 1790 1796 1783 1783 1782 1780 1761 1757 1740 1734 1720 1730 1722 1712 1700 1685 1673 1667 1654 1643 1630 1622 1618 1602 1592 1582 1562 1541 1524 1513 1489 1468 1457 1447 1435 1421 1409 1395 1379 1372 1350 1330 1319 1288 1267 1242 1226 1205 1195 1185 1178 1173 1170 1167 1167 1174 1170 1157 1151 1145 1138 1134 1125 1117 1115 1114 1105 1102 1103 1102 1098 1106 1109 1111 1119 1126 1127 1121 1114 1108 1108 1108 1098 1094 1094 1091 1084 1075 1067 1058 -9999 -9999 -9999 -9999 -9999 -9999 -9999 -9999 -9999 -9999 -9999 -9999 -9999 -9999 -9999 -9999 -9999
-9999 -9999 -9999 -9999 -9999 -9999 -9999 -9999 -9999 -9999 -9999 -9999 -9999 -9999 -9999 -9999 -9999 -9999 -9999 -9999 -9999 -9999 -9999 -9999 -9999 -9999 -9999 -9999 -9999 -9999 -9999 -9999 -9999 -9999 -9999 -9999 -9999 -9999 -9999 -9999 -9999 -9999 -9999 -9999 -9999 2164 2120 2080 2043 2011 1985 1961 1946 1941 1950 1966 1953 1961 1962 1938 1921 1914 1901 1887 1869 1858 1832 1800 1787 1771 1757 1755 1739 1745 1744 1753 1772 1763 1760 1753 1744 1731 1729 1718 1707 1689 1699 1698 1690 1682 1674 1669 1658 1636 1634 1619 1610 1603 1588 1573 1567 1549 1536 1523 1504 1482 1463 1449 1436 1420 1405 1395 1384 1370 1354 1337 1318 1298 1274 1245 1227 1210 1202 1194 1187 1181 1179 1186 1186 1180 1175 1167 1161 1149 1142 1134 1124 1119 1115 1109 1105 1103 1099 1107 1111 1114 1113 1118 1120 1126 1120 1113 1110 1106 1103 1101 1100 1101 1099 1097 1090 1078 -9999 -9999 -9999 -9999 -9999 -9999 -9999 -9999 -9999 -9999 -9999 -9999 -9999 -9999 -9999 -9999 -9999 -9999 -9999
-9999 -9999 -9999 -9999 -9999 -9999 -9999 -9999 -9999 -9999 -9999 -9999 -9999 -9999 -9999 -9999 -9999 -9999 -9999 -9999 -9999 -9999 -9999 -9999 -9999 -9999 -9999 -9999 -9999 -9999 -9999 -9999 -9999 -9999 -9999 -9999 -9999 -9999 -9999 -9999 -9999 -9999 -9999 -9999 2214 2211 2214 2102 2049 2030 2003 1987 1959 1948 1939 1942 1946 1956 1952 1936 1927 1922 1917 1909 1893 1869 1848 1825 1795 1779 1772 1746 1732 1721 1712 1718 1729 1742 1741 1737 1732 1724 1713 1707 1697 1687 1679 1677 1678 1666 1660 1648 1643 1641 1633 1618 1614 1604 1589 1582 1569 1552 1540 1524 1507 1489 1473 1456 1441 1422 1412 1394 1385 1375 1355 1334 1307 1280 1254 1230 1212 1204 1204 1200 1196 1193 1198 1203 1188 1177 1167 1156 1150 1133 1126 1120 1111 1107 1106 1104 1108 1116 1117 1117 1115 1114 1117 1128 1125 1120 1117 1120 1116 1113 1111 1109 1106 1107 1106 1100 1095 1077 -9999 -9999 -9999 -9999 -9999 -9999 -9999 -9999 -9999 -9999 -9999 -9999 -9999 -9999 -9999 -9999 -9999 -9999 -9999
-9999 -9999 -9999 -9999 -9999 -9999 -9999 -9999 -9999 -9999 -9999 -9999 -9999 -9999 -9999 -9999 -9999 -9999 -9999 -9999 -9999 -9999 -9999 -9999 -9999 -9999 -9999 -9999 -9999 -9999 -9999 -9999 -9999 -9999 -9999 -9999 -9999 -9999 -9999 -9999 -9999 -9999 -9999 2194 2199 2203 2204 2202 2099 2047 2020 1998 1974 1956 1938 1933 1920 1929 1930 1933 1925 1924 1930 1910 1889 1878 1859 1847 1826 1806 1780 1761 1739 1730 1717 1703 1696 1708 1720 1723 1720 1711 1699 1696 1690 1684 1671 1655 1656 1656 1643 1632 1622 1619 1616 1610 1610 1604 1590 1581 1571 1556 1535 1517 1502 1487 1475 1457 1442 1428 1415 1399 1383 1369 1345 1318 1291 1263 1238 1218 1204 1196 1192 1194 1196 1202 1196 1192 1184 1176 1166 1158 1150 1138 1133 1116 1109 1108 1110 1124 1130 1133 1133 1124 1120 1124 1131 1131 1127 1128 1125 1123 1121 1120 1119 1125 1121 1115 1109 1107 1092 -9999 -9999 -9999 -9999 -9999 -9999 -9999 -9999 -9999 -9999 -9999 -9999 -9999 -9999 -9999 -9999 -9999 -9999 -9999 -9999
-9999 -9999 -9999 -9999 -9999 -9999 -9999 -9999 -9999 -9999 -9999 -9999 -9999 -9999 -9999 -9999 -9999 -9999 -9999 -9999 -9999 -9999 -9999 -9999 -9999 -9999 -9999 -9999 -9999 -9999 -9999 -9999 -9999 -9999 1917 -9999 -9999 -9999 -9999 -9999 -9999 -9999 2171 2175 2182 2186 2189 2186 2185 2082 2040 2016 1989 1963 1946 1933 1921 1910 1910 1913 1910 1910 1910 1896 1892 1879 1863 1853 1842 1817 1799 1780 1774 1751 1734 1719 1705 1697 1694 1696 1700 1696 1684 1685 1674 1661 1662 1645 1626 1632 1632 1623 1618 1610 1603 1597 1588 1589 1587 1576 1565 1557 1541 1523 1504 1496 1477 1451 1438 1428 1418 1405 1389 1368 1337 1306 1275 1246 1224 1211 1200 1194 1193 1199 1215 1207 1200 1189 1180 1172 1162 1160 1154 1135 1115 1119 1125 1128 1137 1145 1143 1140 1135 1137 1140 1146 1143 1140 1136 1133 1130 1126 1126 1126 1134 1133 1126 1119 1111 -9999 -9999 -9999 -9999 -9999 -9999 -9999 -9999 -9999 -9999 -9999 -9999 -9999 -9999 -9999 -9999 -9999 -9999 -9999 -9999 -9999 -9999
-9999 -9999 -9999 -9999 -9999 -9999 -9999 -9999 -9999 -9999 -9999 -9999 -9999 -9999 -9999 1889 1889 1897 1910 1921 1928 1917 1914 1909 -9999 -9999 -9999 -9999 -9999 -9999 1903 -9999 1878 1883 1895 1914 1942 1971 2006 2050 2089 2100 2152 2156 2162 2166 2168 2167 2165 2147 2056 2036 2009 1987 1972 1955 1937 1919 1901 1888 1889 1898 1892 1877 1881 1877 1873 1877 1857 1837 1821 1818 1801 1775 1757 1742 1719 1700 1700 1691 1677 1676 1662 1657 1649 1646 1640 1632 1616 1610 1602 1606 1602 1599 1591 1586 1577 1572 1564 1558 1547 1546 1540 1531 1522 1507 1482 1453 1431 1412 1401 1391 1382 1357 1332 1292 1254 1232 1213 1205 1200 1198 1202 1215 1221 1216 1208 1195 1180 1170 1152 1133 1122 1119 1126 1133 1144 1151 1145 1149 1152 1151 1153 1155 1159 1152 1148 1152 1145 1135 1132 1130 1130 1144 1146 1134 -9999 -9999 -9999 -9999 -9999 -9999 -9999 -9999 -9999 -9999 -9999 -9999 -9999 -9999 -9999 -9999 -9999 -9999 -9999 -9999 -9999 -9999 -9999 -9999 -9999
-9999 -9999 -9999 -9999 -9999 -9999 -9999 -9999 -9999 1980 1961 -9999 -9999 1919 1900 1891 1878 1880 1889 1899 1909 1902 1900 1893 1901 1894 1881 1885 1893 1895 1882 1874 1859 1866 1881 1902 1930 1963 1993 2030 2064 2088 2102 2139 2142 2144 2144 2141 2143 2142 2142 2089 2081 2011 1999 1981 1960 1941 1920 1901 1882 1877 1883 1880 1869 1862 1869 1868 1853 1856 1844 1831 1811 1792 1777 1769 1742 1724 1701 1685 1679 1667 1650 1635 1624 1617 1615 1613 1607 1591 1590 1574 1579 1584 1578 1576 1568 1551 1547 1542 1534 1531 1528 1522 1516 1509 1480 1449 1421 1406 1393 1369 1359 1342 1321 1267 1235 1220 1206 1201 1200 1202 1205 1214 1222 1217 1208 1193 1176 1164 1135 1140 1142 1143 1146 1161 1159 1156 1153 1159 1162 1164 1173 1179 1176 1171 1156 1153 1140 1136 1133 1132 1138 1147 1144 -9999 -9999 -9999 -9999 -9999 -9999 -9999 -9999 -9999 -9999 -9999 -9999 -9999 -9999 -9999 -9999 -9999 -9999 -9999 -9999 -9999 -9999 -9999 -9999 -9999 -9999
-9999 -9999 -9999 -9999 -9999 -9999 -9999 -9999 1981 1971 1951 1931 1920 1907 1884 1878 1864 1863 1868 1878 1893 1898 1887 1873 1881 1867 1868 1863 1867 1886 1883 1877 1855 1855 1865 1888 1919 1954 1986 2011 2037 2054 2070 2103 2106 2119 2120 2114 2121 2125 2124 2122 2122 2087 2030 2006 1981 1970 1945 1922 1901 1886 1868 1865 1849 1840 1842 1848 1856 1860 1855 1834 1811 1800 1792 1789 1761 1739 1719 1698 1680 1662 1643 1630 1620 1601 1592 1582 1581 1572 1557 1558 1551 1559 1560 1560 1554 1543 1534 1529 1519 1515 1511 1505 1495 1486 1473 1439 1408 1395 1388 1364 1342 1316 1273 1243 1224 1213 1206 1205 1206 1213 1213 1219 1221 1212 1202 1189 1180 1172 1159 1159 1161 1162 1165 1165 1166 1170 1166 1174 1179 1189 1190 1184 1176 1166 1161 1144 1146 1145 1140 1135 1145 1145 -9999 -9999 -9999 -9999 -9999 -9999 -9999 -9999 -9999 -9999 -9999 -9999 -9999 -9999 -9999 -9999 -9999 -9999 -9999 -9999 -9999 -9999 -9999 -9999 -9999 -9999 -9999
-9999 -9999 -9999 -9999 -9999 -9999 -9999 1986 1975 1961 1954 1941 1914 1900 1870 1869 1852 1847 1850 1853 1874 1879 1860 1855 1858 1848 1844 1845 1847 1860 1865 1879 1862 1853 1856 1876 1907 1943 1969 1985 2008 2031 2033 2030 2089 2097 2098 2093 2098 2102 2105 2104 2104 2101 2098 2067 2038 2000 1963 1943 1923 1907 1883 1862 1846 1833 1830 1832 1832 1842 1847 1831 1816 1803 1794 1790 1772 1752 1724 1715 1699 1679 1655 1631 1614 1599 1583 1576 1570 1565 1554 1545 1533 1537 1536 1546 1546 1534 1532 1525 1516 1508 1499 1492 1485 1474 1457 1425 1393 1379 1372 1349 1326 1281 1248 1226 1214 1209 1209 1208 1212 1219 1217 1218 1215 1205 1198 1191 1183 1174 1174 1176 1179 1180 1182 1183 1184 1186 1184 1194 1197 1202 1196 1193 1181 1172 1162 1160 1149 1149 1141 1137 1138 -9999 -9999 -9999 -9999 -9999 -9999 -9999 -9999 -9999 -9999 -9999 -9999 -9999 -9999 -9999 -9999 -9999 -9999 -9999 -9999 -9999 -9999 -9999 -9999 -9999 -9999 -9999 -9999
-9999 -9999 -9999 -9999 -9999 -9999 1994 1982 1973 1964 1953 1937 1919 1894 1869 1868 1853 1847 1847 1846 1846 1861 1836 1840 1846 1845 1834 1828 1827 1833 1847 1855 1862 1861 1868 1868 1885 1914 1943 1955 1984 2006 2012 2012 2032 2064 2075 2078 2080 2081 2085 2084 2081 2082 2079 2065 2073 2067 2057 2013 1963 1945 1907 1882 1863 1844 1830 1823 1819 1815 1818 1828 1822 1811 1793 1770 1759 1737 1730 1718 1701 1685 1666 1645 1627 1611 1592 1579 1565 1552 1540 1543 1534 1527 1523 1524 1526 1517 1512 1514 1502 1498 1495 1490 1480 1470 1454 1416 1380 1361 1347 1326 1287 1253 1227 1210 1209 1210 1210 1212 1217 1216 1214 1213 1206 1198 1194 1193 1181 1182 1190 1193 1196 1195 1196 1199 1201 1205 1205 1207 1211 1217 1213 1203 1186 1178 1177 1170 1158 1149 1140 1132 -9999 -9999 -9999 -9999 -9999 -9999 -9999 -9999 -9999 -9999 -9999 -9999 -9999 -9999 -9999 -9999 -9999 -9999 -9999 -9999 -9999 -9999 -9999 -9999 -9999 -9999 -9999 -9999 -9999
-9999 -9999 -9999 -9999 -9999 -9999 1994 1982 1973 1964 1953 1937 1919 1894 1869 1868 1853 1847 1847 1846 1846 1861 1836 1840 1846 1845 1834 1828 1827 1833 1847 1855 1862 1861 1868 1868 1885 1914 1943 1955 1984 2006 2012 2012 2032 2064 2075 2078 2080 2081 2085 2084 2081 2082 2079 2065 2073 2067 2057 2013 1963 1945 1907 1882 1863 1844 1830 1823 1819 1815 1818 1828 1822 1811 1793 1770 1759 1737 1730 1718 1701 1685 1666 1645 1627 1611 1592 1579 1565 1552 1540 1543 1534 1527 1523 1524 1526 1517 1512 1514 1502 1498 1495 1490 1480 1470 1454 1416 1380 1361 1347 1326 1287 1253 1227 1210 1209 1210 1210 1212 1217 1216 1214 1213 1206 1198 1194 1193 1181 1182 1190 1193 1196 1195 1196 1199 1201 1205 1205 1207 1211 1217 1213 1203 1186 1178 1177 1170 1158 -9999 -9999 -9999 -9999 -9999 -9999 -9999 -9999 -9999 -9999 -9999 -9999 -9999 -9999 -9999 -9999 -9999 -9999 -9999 -9999 -9999 -9999 -9999 -9999 -9999 -9999 -9999 -9999 -9999 -9999 -9999 -9999
-9999 -9999 -9999 -9999 -9999 1978 1973 1971 1961 1962 1952 1944 1929 1917 1892 1873 1859 1842 1829 1832 1843 1840 1825 1820 1829 1839 1826 1818 1810 1817 1829 1832 1849 1839 1843 1867 1862 1886 1909 1927 1955 1981 1993 1997 2011 2018 2054 2051 2063 2067 2067 2066 2062 2065 2063 2055 2061 2049 2048 2042 2039 1998 1942 1911 1885 1859 1838 1825 1813 1795 1794 1796 1798 1803 1796 1773 1754 1734 1725 1717 1697 1684 1671 1651 1636 1618 1599 1583 1568 1556 1536 1522 1513 1509 1507 1504 1503 1501 1500 1498 1499 1491 1478 1477 1471 1463 1450 1407 1367 1343 1324 1305 1262 1228 1210 1207 1209 1210 1211 1214 1212 1211 1221 1215 1209 1197 1195 1185 1184 1198 1208 1212 1213 1212 1210 1213 1218 1221 1222 1226 1229 1225 1216 -9999 -9999 -9999 -9999 -9999 -9999 -9999 -9999 -9999 -9999 -9999 -9999 -9999 -9999 -9999 -9999 -9999 -9999 -9999 -9999 -9999 -9999 -9999 -9999 -9999 -9999 -9999 -9999 -9999 -9999 -9999 -9999 -9999 -9999 -9999 -9999 -9999 -9999
-9999 -9999 -9999 -9999 1963 1962 1960 1953 1946 1936 1937 1931 1929 1916 1897 1880 1865 1850 1835 1824 1821 1827 1813 1820 1825 1826 1822 1802 1798 1797 1803 1809 1816 1827 1834 1838 1848 1862 1879 1901 1935 1960 1974 1979 1991 1996 2012 2029 2031 2044 2047 2049 2040 2048 2048 2037 2045 2035 2042 2046 2039 2029 1977 1933 1903 1874 1847 1828 1814 1798 1783 1778 1777 1772 1778 1780 1760 1734 1711 1697 1684 1674 1656 1640 1627 1608 1599 1583 1562 1548 1531 1519 1507 1496 1489 1484 1482 1481 1479 1478 1475 1472 1468 1472 1461 1449 1434 1393 1352 1326 1308 1272 1238 1214 1209 1208 1208 1209 1211 1211 1211 1220 1214 1210 1202 1207 1188 1187 1208 1213 1222 1226 1226 1226 1223 1226 1233 1236 1241 -9999 -9999 -9999 -9999 -9999 -9999 -9999 -9999 -9999 -9999 -9999 -9999 -9999 -9999 -9999 -9999 -9999 -9999 -9999 -9999 -9999 -9999 -9999 -9999 -9999 -9999 -9999 -9999 -9999 -9999 -9999 -9999 -9999 -9999 -9999 -9999 -9999 -9999 -9999 -9999 -9999 -9999
-9999 -9999 -9999 -9999 1960 1949 1942 1935 1934 1922 1921 1919 1918 1904 1899 1890 1873 1854 1832 1827 1805 1801 1797 1798 1805 1806 1813 1787 1781 1783 1785 1778 1789 1806 1809 1812 1831 1840 1855 1879 1907 1930 1946 1946 1964 1966 1969 1988 1994 2020 2027 1994 1982 1971 1973 1982 2007 2026 2039 2038 2036 2035 2019 1978 1954 1894 1851 1830 1822 1809 1789 1777 1766 1760 1751 1748 1754 1746 1726 1697 1673 1655 1640 1625 1606 1596 1575 1572 1553 1537 1520 1512 1502 1494 1483 1473 1470 1468 1460 1459 1452 1449 1446 1448 1436 1432 1406 1369 1325 1305 1289 1260 1233 1218 1212 1208 1207 1207 1207 1205 1209 1209 1205 1211 1201 1190 1186 1191 1217 1224 1229 1234 1236 1235 1232 1235 1241 1247 -9999 -9999 -9999 -9999 -9999 -9999 -9999 -9999 -9999 -9999 -9999 -9999 -9999 -9999 -9999 -9999 -9999 -9999 -9999 -9999 -9999 -9999 -9999 -9999 -9999 -9999 -9999 -9999 -9999 -9999 -9999 -9999 -9999 -9999 -9999 -9999 -9999 -9999 -9999 -9999 -9999 -9999 -9999
-9999 -9999 -9999 1980 1964 1944 1936 1919 1914 1906 1899 1910 1910 1899 1877 1881 1877 1861 1838 1821 1808 1788 1777 1783 1789 1792 1796 1791 1777 1777 1772 1775 1781 1788 1791 1794 1809 1816 1828 1850 1871 1888 1906 1909 1920 1929 1936 1942 1964 1996 1955 1954 1958 1955 1961 1967 1979 1972 2024 2025 2026 2029 2026 2020 2014 2008 1949 1865 1829 1820 1808 1793 1772 1766 1749 1739 1734 1737 1725 1709 1681 1653 1637 1615 1594 1580 1572 1544 1523 1514 1499 1496 1494 1484 1475 1465 1449 1444 1444 1439 1435 1432 1423 1417 1413 1389 1334 1306 1288 1278 1265 1246 1226 1221 1214 1212 1211 1211 1209 1201 1203 1206 1209 1207 1190 1184 1185 1191 1217 1224 1226 1235 1242 1239 1242 1245 1253 1258 -9999 -9999 -9999 -9999 -9999 -9999 -9999 -9999 -9999 -9999 -9999 -9999 -9999 -9999 -9999 -9999 -9999 -9999 -9999 -9999 -9999 -9999 -9999 -9999 -9999 -9999 -9999 -9999 -9999 -9999 -9999 -9999 -9999 -9999 -9999 -9999 -9999 -9999 -9999 -9999 -9999 -9999 -9999
-9999 -9999 -9999 1986 1959 1946 1925 1907 1904 1903 1897 1901 1900 1893 1862 1871 1865 1858 1839 1823 1814 1797 1778 1771 1776 1780 1778 1776 1778 1774 1781 1779 1783 1771 1778 1781 1785 1789 1803 1823 1839 1853 1865 1873 1876 1882 1888 1902 1905 1921 1925 1935 1942 1936 1935 1958 1948 1944 1945 2009 2009 2016 2014 2007 2005 1996 1994 1973 1964 1878 1818 1802 1781 1767 1756 1746 1736 1731 1723 1700 1684 1658 1635 1610 1593 1580 1565 1549 1522 1509 1497 1490 1480 1468 1463 1445 1437 1433 1426 1424 1411 1410 1405 1382 1353 1310 1293 1279 1265 1259 1254 1240 1235 1226 1220 1217 1213 1209 1200 1198 1195 1191 1203 1191 1185 1187 1205 1212 1213 1221 1228 1239 1250 1253 1250 1261 1258 -9999 -9999 -9999 -9999 -9999 -9999 -9999 -9999 -9999 -9999 -9999 -9999 -9999 -9999 -9999 -9999 -9999 -9999 -9999 -9999 -9999 -9999 -9999 -9999 -9999 -9999 -9999 -9999 -9999 -9999 -9999 -9999 -9999 -9999 -9999 -9999 -9999 -9999 -9999 -9999 -9999 -9999 -9999 -9999
-9999 -9999 -9999 1990 1962 1946 1930 1918 1902 1899 1891 1889 1889 1883 1858 1859 1854 1850 1832 1825 1817 1806 1785 1772 1763 1767 1771 1764 1764 1763 1772 1769 1771 1776 1765 1776 1769 1765 1780 1795 1809 1821 1831 1840 1845 1850 1855 1860 1871 1893 1904 1905 1921 1903 1909 1917 1921 1924 1927 1924 1974 1993 1995 1986 1989 1990 1987 1966 1961 1952 1905 1829 1801 1774 1761 1743 1741 1732 1715 1694 1677 1655 1635 1613 1595 1584 1563 1544 1524 1504 1488 1482 1459 1453 1446 1431 1419 1414 1410 1410 1404 1388 1382 1342 1307 1283 1265 1254 1248 1246 1244 1245 1239 1226 1217 1212 1208 1211 1211 1210 1207 1200 1189 1189 1189 1204 1217 1226 1228 1232 1239 1255 1263 1262 1267 1277 1277 -9999 -9999 -9999 -9999 -9999 -9999 -9999 -9999 -9999 -9999 -9999 -9999 -9999 -9999 -9999 -9999 -9999 -9999 -9999 -9999 -9999 -9999 -9999 -9999 -9999 -9999 -9999 -9999 -9999 -9999 -9999 -9999 -9999 -9999 -9999 -9999 -9999 -9999 -9999 -9999 -9999 -9999 -9999 -9999
-9999 -9999 -9999 1983 1965 1941 1927 1916 1901 1892 1883 1877 1872 1862 1855 1850 1843 1835 1825 1816 1809 1795 1780 1775 1761 1749 1753 1749 1737 1751 1749 1756 1760 1760 1757 1745 1741 1745 1755 1768 1780 1789 1797 1810 1815 1821 1823 1827 1845 1853 1871 1871 1870 1874 1887 1897 1895 1901 1897 1899 1904 1928 1961 1960 1965 1972 1968 1955 1958 1948 1936 1872 1827 1793 1769 1753 1727 1719 1698 1690 1673 1663 1640 1614 1592 1572 1553 1534 1512 1499 1478 1465 1447 1426 1419 1416 1406 1394 1399 1395 1389 1360 1340 1311 1282 1265 1254 1249 1249 1246 1248 1245 1236 1221 1217 1225 1220 1212 1207 1205 1201 1202 1210 1194 1203 1217 1232 1234 1237 1246 1259 1267 1268 1273 1283 1288 -9999 -9999 -9999 -9999 -9999 -9999 -9999 -9999 -9999 -9999 -9999 -9999 -9999 -9999 -9999 -9999 -9999 -9999 -9999 -9999 -9999 -9999 -9999 -9999 -9999 -9999 -9999 -9999 -9999 -9999 -9999 -9999 -9999 -9999 -9999 -9999 -9999 -9999 -9999 -9999 -9999 -9999 -9999 -9999 -9999
-9999 -9999 2004 1975 1951 1935 1927 1923 1916 1906 1890 1878 1857 1848 1850 1846 1835 1824 1812 1811 1808 1797 1786 1775 1750 1749 1732 1718 1723 1726 1733 1733 1739 1741 1739 1718 1716 1721 1730 1741 1750 1757 1761 1772 1785 1790 1791 1803 1814 1827 1832 1833 1828 1837 1848 1851 1856 1861 1880 1881 1896 1894 1920 1936 1945 1951 1946 1937 1940 1932 1925 1871 1835 1800 1767 1745 1731 1714 1701 1690 1672 1640 1621 1603 1585 1559 1536 1518 1493 1485 1474 1458 1439 1424 1414 1400 1383 1380 1375 1376 1370 1338 1303 1276 1261 1249 1245 1252 1252 1248 1237 1231 1225 1234 1236 1224 1220 1213 1210 1205 1205 1213 1239 1219 1221 1225 1234 1241 1253 1266 1274 1273 1280 1290 1299 -9999 -9999 -9999 -9999 -9999 -9999 -9999 -9999 -9999 -9999 -9999 -9999 -9999 -9999 -9999 -9999 -9999 -9999 -9999 -9999 -9999 -9999 -9999 -9999 -9999 -9999 -9999 -9999 -9999 -9999 -9999 -9999 -9999 -9999 -9999 -9999 -9999 -9999 -9999 -9999 -9999 -9999 -9999 -9999 -9999 -9999
-9999 2016 1996 1970 1946 1941 1938 1932 1920 1907 1898 1885 1868 1854 1840 1837 1827 1818 1820 1817 1799 1790 1784 1772 1757 1741 1713 1703 1687 1695 1703 1707 1706 1710 1704 1704 1687 1695 1703 1713 1720 1728 1728 1736 1754 1756 1763 1769 1786 1793 1800 1808 1811 1809 1813 1812 1812 1829 1857 1858 1863 1866 1855 1908 1918 1921 1921 1920 1921 1913 1910 1857 1831 1791 1759 1731 1701 1686 1689 1676 1666 1657 1629 1593 1575 1549 1524 1501 1481 1466 1463 1446 1428 1418 1403 1392 1380 1369 1364 1361 1343 1337 1309 1287 1272 1261 1250 1246 1242 1241 1245 1246 1248 1244 1238 1225 1220 1213 1210 1213 1219 1234 1235 1224 1236 1239 1248 1257 1268 1276 1276 1282 1293 1303 1303 -9999 -9999 -9999 -9999 -9999 -9999 -9999 -9999 -9999 -9999 -9999 -9999 -9999 -9999 -9999 -9999 -9999 -9999 -9999 -9999 -9999 -9999 -9999 -9999 -9999 -9999 -9999 -9999 -9999 -9999 -9999 -9999 -9999 -9999 -9999 -9999 -9999 -9999 -9999 -9999 -9999 -9999 -9999 -9999 -9999 -9999
-9999 2017 1997 1971 1953 1941 1932 1939 1926 1916 1909 1893 1877 1856 1835 1830 1820 1815 1811 1813 1804 1795 1781 1774 1753 1723 1698 1682 1671 1659 1670 1687 1685 1671 1673 1669 1662 1667 1674 1685 1694 1702 1704 1709 1718 1722 1730 1739 1752 1759 1768 1780 1787 1790 1784 1777 1780 1793 1814 1819 1822 1826 1830 1859 1871 1892 1897 1902 1907 1904 1871 1832 1833 1802 1760 1726 1694 1679 1673 1660 1647 1638 1614 1584 1558 1537 1513 1494 1487 1469 1443 1437 1433 1407 1387 1369 1372 1360 1355 1358 1347 1320 1301 1280 1271 1267 1257 1260 1261 1262 1263 1262 1257 1250 1243 1229 1224 1221 1217 1225 1233 1240 1231 1230 1251 1256 1261 1273 1281 1285 1288 1294 1305 1313 -9999 -9999 -9999 -9999 -9999 -9999 -9999 -9999 -9999 -9999 -9999 -9999 -9999 -9999 -9999 -9999 -9999 -9999 -9999 -9999 -9999 -9999 -9999 -9999 -9999 -9999 -9999 -9999 -9999 -9999 -9999 -9999 -9999 -9999 -9999 -9999 -9999 -9999 -9999 -9999 -9999 -9999 -9999 -9999 -9999 -9999 -9999
-9999 -9999 2020 1993 1972 1953 1940 1933 1931 1923 1905 1899 1885 1866 1847 1830 1824 1812 1806 1802 1800 1795 1786 1772 1748 1713 1694 1683 1663 1651 1642 1650 1657 1654 1652 1660 1652 1635 1642 1650 1664 1675 1678 1681 1687 1692 1699 1705 1719 1728 1736 1747 1753 1756 1750 1743 1749 1759 1773 1780 1785 1791 1797 1806 1827 1822 1864 1868 1863 1836 1808 1817 1817 1799 1761 1727 1692 1669 1653 1640 1638 1629 1600 1574 1551 1525 1507 1493 1479 1462 1434 1417 1408 1404 1389 1364 1340 1336 1337 1346 1347 1323 1306 1290 1272 1261 1265 1274 1276 1275 1272 1270 1267 1259 1249 1237 1228 1224 1233 1243 1244 1240 1230 1242 1266 1275 1283 1289 1300 1306 1306 1309 1317 -9999 -9999 -9999 -9999 -9999 -9999 -9999 -9999 -9999 -9999 -9999 -9999 -9999 -9999 -9999 -9999 -9999 -9999 -9999 -9999 -9999 -9999 -9999 -9999 -9999 -9999 -9999 -9999 -9999 -9999 -9999 -9999 -9999 -9999 -9999 -9999 -9999 -9999 -9999 -9999 -9999 -9999 -9999 -9999 -9999 -9999 -9999 -9999
-9999 -9999 -9999 -9999 1997 1967 1945 1936 1927 1920 1905 1901 1889 1874 1856 1837 1819 1817 1811 1801 1793 1781 1776 1757 1732 1711 1698 1681 1670 1660 1648 1630 1619 1616 1627 1624 1636 1638 1613 1621 1635 1645 1651 1653 1656 1663 1670 1676 1686 1698 1707 1715 1720 1720 1714 1712 1719 1727 1738 1747 1753 1755 1765 1766 1775 1777 1770 1777 1784 1788 1786 1786 1786 1797 1754 1721 1687 1674 1653 1656 1637 1623 1601 1575 1552 1520 1498 1492 1472 1443 1432 1422 1406 1383 1370 1364 1343 1327 1320 1329 1337 1323 1296 1285 1284 1283 1284 1281 1278 1277 1279 1287 1287 1285 1283 1269 1251 1240 1247 1245 1237 1232 1238 1270 1299 1308 1309 1306 1315 1314 1316 1322 1323 -9999 -9999 -9999 -9999 -9999 -9999 -9999 -9999 -9999 -9999 -9999 -9999 -9999 -9999 -9999 -9999 -9999 -9999 -9999 -9999 -9999 -9999 -9999 -9999 -9999 -9999 -9999 -9999 -9999 -9999 -9999 -9999 -9999 -9999 -9999 -9999 -9999 -9999 -9999 -9999 -9999 -9999 -9999 -9999 -9999 -9999 -9999 -9999
-9999 -9999 -9999 -9999 -9999 1992 1952 1932 1921 1912 1901 1902 1890 1877 1862 1843 1824 1810 1801 1796 1798 1790 1780 1753 1746 1722 1710 1699 1686 1676 1669 1664 1647 1629 1610 1602 1606 1614 1618 1598 1605 1613 1620 1622 1625 1638 1642 1646 1655 1668 1676 1681 1688 1689 1682 1680 1687 1694 1705 1718 1730 1738 1741 1743 1745 1745 1745 1746 1753 1757 1756 1754 1750 1745 1734 1708 1673 1649 1653 1641 1618 1598 1580 1557 1532 1515 1506 1477 1460 1445 1418 1406 1389 1368 1343 1339 1336 1330 1314 1316 1320 1317 1309 1304 1304 1292 1282 1277 1277 1281 1289 1292 1290 1286 1282 1279 1264 1255 1253 1239 1237 1247 1261 1278 1301 1317 1321 1330 1336 1329 1325 -9999 -9999 -9999 -9999 -9999 -9999 -9999 -9999 -9999 -9999 -9999 -9999 -9999 -9999 -9999 -9999 -9999 -9999 -9999 -9999 -9999 -9999 -9999 -9999 -9999 -9999 -9999 -9999 -9999 -9999 -9999 -9999 -9999 -9999 -9999 -9999 -9999 -9999 -9999 -9999 -9999 -9999 -9999 -9999 -9999 -9999 -9999 -9999 -9999 -9999
-9999 -9999 -9999 -9999 -9999 -9999 -9999 1948 1931 1909 1900 1901 1889 1878 1865 1849 1831 1813 1803 1801 1789 1784 1779 1766 1757 1738 1731 1719 1710 1703 1693 1684 1669 1656 1645 1630 1612 1595 1590 1594 1584 1581 1591 1592 1597 1603 1613 1616 1624 1634 1640 1645 1654 1667 1649 1647 1651 1661 1675 1689 1701 1709 1715 1717 1714 1714 1721 1719 1718 1724 1723 1723 1721 1719 1711 1692 1685 1652 1622 1612 1596 1577 1559 1541 1522 1512 1499 1481 1471 1451 1422 1395 1371 1357 1343 1327 1320 1317 1308 1306 1308 1310 1307 1300 1295 1295 1291 1287 1283 1279 1284 1281 1277 1270 1263 1258 1248 1246 1242 1233 1242 1255 1268 1287 1310 1334 1354 1360 -9999 -9999 -9999 -9999 -9999 -9999 -9999 -9999 -9999 -9999 -9999 -9999 -9999 -9999 -9999 -9999 -9999 -9999 -9999 -9999 -9999 -9999 -9999 -9999 -9999 -9999 -9999 -9999 -9999 -9999 -9999 -9999 -9999 -9999 -9999 -9999 -9999 -9999 -9999 -9999 -9999 -9999 -9999 -9999 -9999 -9999 -9999 -9999 -9999 -9999 -9999 -9999 -9999
-9999 -9999 -9999 -9999 -9999 -9999 -9999 -9999 -9999 1935 1905 1893 1888 1878 1868 1855 1839 1819 1803 1789 1790 1786 1772 1767 1763 1754 1748 1733 1714 1704 1695 1681 1672 1662 1649 1631 1614 1597 1581 1569 1567 1559 1567 1569 1573 1572 1579 1584 1590 1596 1600 1606 1609 1634 1620 1620 1615 1630 1646 1660 1673 1682 1687 1687 1684 1686 1689 1693 1690 1684 1686 1691 1691 1691 1696 1701 1679 1655 1635 1616 1588 1574 1567 1541 1527 1514 1497 1490 1484 1463 1435 1406 1384 1361 1340 1323 1309 1303 1299 1297 1305 1295 1294 1289 1285 1283 1279 1276 1270 1276 1269 1264 1258 1251 1243 1238 1237 1236 1235 1243 1254 1275 1281 1305 1331 1363 1380 -9999 -9999 -9999 -9999 -9999 -9999 -9999 -9999 -9999 -9999 -9999 -9999 -9999 -9999 -9999 -9999 -9999 -9999 -9999 -9999 -9999 -9999 -9999 -9999 -9999 -9999 -9999 -9999 -9999 -9999 -9999 -9999 -9999 -9999 -9999 -9999 -9999 -9999 -9999 -9999 -9999 -9999 -9999 -9999 -9999 -9999 -9999 -9999 -9999 -9999 -9999 -9999 -9999 -9999
-9999 -9999 -9999 -9999 -9999 -9999 -9999 -9999 -9999 -9999 1922 1901 1887 1875 1868 1857 1846 1827 1808 1789 1787 1786 1770 1768 1760 1755 1750 1737 1728 1720 1692 1678 1669 1658 1646 1630 1615 1601 1587 1570 1553 1553 1551 1568 1567 1547 1543 1549 1554 1559 1564 1572 1571 1595 1581 1591 1583 1601 1616 1631 1646 1654 1656 1656 1656 1655 1654 1653 1651 1646 1648 1654 1656 1664 1662 1690 1695 1690 1662 1656 1617 1591 1587 1571 1544 1513 1512 1507 1489 1471 1448 1416 1395 1370 1351 1334 1320 1300 1289 1288 1286 1280 1278 1277 1274 1270 1267 1263 1256 1250 1243 1244 1242 1241 1239 1238 1240 1241 1246 1257 1269 1284 1305 1329 1358 1393 -9999 -9999 -9999 -9999 -9999 -9999 -9999 -9999 -9999 -9999 -9999 -9999 -9999 -9999 -9999 -9999 -9999 -9999 -9999 -9999 -9999 -9999 -9999 -9999 -9999 -9999 -9999 -9999 -9999 -9999 -9999 -9999 -9999 -9999 -9999 -9999 -9999 -9999 -9999 -9999 -9999 -9999 -9999 -9999 -9999 -9999 -9999 -9999 -9999 -9999 -9999 -9999 -9999 -9999 -9999
-9999 -9999 -9999 -9999 -9999 -9999 -9999 -9999 -9999 -9999 1933 1915 1894 1875 1866 1852 1844 1829 1816 1808 1787 1774 1771 1756 1750 1748 1751 1742 1732 1722 1718 1702 1681 1664 1655 1637 1622 1609 1595 1583 1565 1547 1544 1537 1546 1551 1531 1512 1516 1524 1532 1538 1536 1550 1538 1551 1555 1576 1587 1604 1622 1627 1626 1628 1625 1623 1624 1622 1617 1614 1614 1616 1618 1627 1627 1623 1663 1653 1639 1625 1605 1581 1570 1562 1543 1531 1528 1510 1493 1471 1436 1407 1391 1367 1354 1334 1318 1304 1293 1283 1279 1275 1268 1264 1261 1258 1256 1253 1247 1244 1243 1243 1241 1241 1244 1247 1249 1255 1263 1278 1290 1307 1333 1359 1384 1397 -9999 -9999 -9999 -9999 -9999 -9999 -9999 -9999 -9999 -9999 -9999 -9999 -9999 -9999 -9999 -9999 -9999 -9999 -9999 -9999 -9999 -9999 -9999 -9999 -9999 -9999 -9999 -9999 -9999 -9999 -9999 -9999 -9999 -9999 -9999 -9999 -9999 -9999 -9999 -9999 -9999 -9999 -9999 -9999 -9999 -9999 -9999 -9999 -9999 -9999 -9999 -9999 -9999 -9999 -9999
-9999 -9999 -9999 -9999 -9999 -9999 -9999 -9999 -9999 -9999 -9999 1921 1913 1881 1864 1851 1840 1826 1816 1813 1796 1778 1763 1751 1752 1746 1740 1747 1745 1740 1728 1719 1700 1679 1656 1638 1623 1611 1600 1588 1572 1553 1538 1530 1523 1523 1526 1513 1495 1502 1507 1509 1503 1507 1509 1512 1523 1538 1551 1572 1590 1600 1599 1599 1595 1592 1590 1591 1588 1583 1582 1582 1583 1581 1591 1581 1650 1624 1615 1604 1593 1578 1564 1558 1544 1539 1536 1526 1470 1444 1414 1385 1366 1348 1335 1326 1309 1295 1285 1277 1273 1271 1267 1264 1260 1257 1253 1247 1246 1246 1246 1247 1254 1263 1267 1267 1269 1278 1287 1303 1312 1331 1356 1382 1406 -9999 -9999 -9999 -9999 -9999 -9999 -9999 -9999 -9999 -9999 -9999 -9999 -9999 -9999 -9999 -9999 -9999 -9999 -9999 -9999 -9999 -9999 -9999 -9999 -9999 -9999 -9999 -9999 -9999 -9999 -9999 -9999 -9999 -9999 -9999 -9999 -9999 -9999 -9999 -9999 -9999 -9999 -9999 -9999 -9999 -9999 -9999 -9999 -9999 -9999 -9999 -9999 -9999 -9999 -9999 -9999
-9999 -9999 -9999 -9999 -9999 -9999 -9999 -9999 -9999 -9999 1913 1913 1913 1892 1870 1849 1839 1828 1805 1810 1798 1787 1762 1748 1748 1751 1752 1749 1749 1741 1728 1719 1705 1695 1674 1659 1642 1623 1606 1590 1578 1564 1543 1528 1515 1506 1504 1485 1485 1483 1482 1479 1470 1471 1481 1487 1494 1505 1518 1534 1550 1564 1567 1567 1566 1564 1556 1555 1555 1552 1552 1551 1552 1560 1564 1555 1581 1586 1587 1582 1575 1564 1553 1545 1524 1514 1512 1502 1449 1424 1397 1373 1352 1332 1331 1314 1296 1295 1286 1278 1271 1267 1264 1260 1258 1256 1249 1248 1248 1252 1259 1270 1281 1289 1293 1292 1296 1309 1310 1318 1333 1354 1378 1404 1436 -9999 -9999 -9999 -9999 -9999 -9999 -9999 -9999 -9999 -9999 -9999 -9999 -9999 -9999 -9999 -9999 -9999 -9999 -9999 -9999 -9999 -9999 -9999 -9999 -9999 -9999 -9999 -9999 -9999 -9999 -9999 -9999 -9999 -9999 -9999 -9999 -9999 -9999 -9999 -9999 -9999 -9999 -9999 -9999 -9999 -9999 -9999 -9999 -9999 -9999 -9999 -9999 -9999 -9999 -9999 -9999
-9999 -9999 -9999 -9999 -9999 -9999 -9999 -9999 -9999 1900 1901 1908 1904 1895 1877 1849 1844 1828 1811 1809 1801 1789 1774 1753 1746 1753 1741 1739 1740 1729 1729 1717 1699 1690 1679 1665 1650 1633 1614 1590 1578 1565 1552 1535 1517 1504 1487 1471 1465 1465 1459 1447 1440 1442 1454 1458 1463 1473 1485 1498 1511 1520 1521 1529 1533 1533 1522 1516 1517 1519 1523 1522 1521 1527 1535 1531 1531 1562 1557 1554 1553 1544 1537 1526 1510 1491 1489 1504 1422 1415 1383 1363 1345 1325 1323 1299 1299 1298 1301 1284 1285 1278 1270 1261 1256 1256 1250 1250 1252 1262 1274 1285 1295 1303 1306 1307 1309 1316 1325 1337 1355 1379 1407 1443 -9999 -9999 -9999 -9999 -9999 -9999 -9999 -9999 -9999 -9999 -9999 -9999 -9999 -9999 -9999 -9999 -9999 -9999 -9999 -9999 -9999 -9999 -9999 -9999 -9999 -9999 -9999 -9999 -9999 -9999 -9999 -9999 -9999 -9999 -9999 -9999 -9999 -9999 -9999 -9999 -9999 -9999 -9999 -9999 -9999 -9999 -9999 -9999 -9999 -9999 -9999 -9999 -9999 -9999 -9999 -9999 -9999
-9999 -9999 -9999 -9999 -9999 -9999 -9999 -9999 1871 1889 1884 1897 1893 1881 1875 1855 1858 1838 1817 1805 1801 1788 1770 1764 1755 1750 1735 1726 1724 1728 1721 1703 1697 1690 1682 1664 1648 1632 1615 1595 1572 1560 1546 1526 1516 1495 1471 1448 1446 1446 1424 1409 1412 1417 1427 1428 1431 1442 1452 1459 1461 1462 1474 1487 1494 1494 1485 1484 1488 1493 1496 1496 1494 1496 1500 1502 1499 1496 1515 1517 1518 1516 1505 1501 1493 1476 1472 1480 1417 1397 1370 1355 1340 1323 1306 1301 1302 1309 1304 1297 1286 1275 1270 1263 1254 1252 1253 1252 1260 1276 1291 1300 1307 1312 1315 1319 1322 1330 1344 1361 1384 1410 1438 1459 -9999 -9999 -9999 -9999 -9999 -9999 -9999 -9999 -9999 -9999 -9999 -9999 -9999 -9999 -9999 -9999 -9999 -9999 -9999 -9999 -9999 -9999 -9999 -9999 -9999 -9999 -9999 -9999 -9999 -9999 -9999 -9999 -9999 -9999 -9999 -9999 -9999 -9999 -9999 -9999 -9999 -9999 -9999 -9999 -9999 -9999 -9999 -9999 -9999 -9999 -9999 -9999 -9999 -9999 -9999 -9999 -9999
-9999 -9999 -9999 -9999 -9999 -9999 -9999 -9999 1844 1869 1872 1880 1878 1865 1860 1858 1849 1841 1822 1805 1807 1798 1785 1777 1760 1740 1736 1732 1724 1718 1715 1705 1688 1683 1679 1667 1651 1637 1617 1597 1570 1555 1539 1519 1505 1485 1463 1439 1403 1397 1381 1375 1387 1391 1400 1400 1405 1415 1419 1423 1426 1431 1437 1445 1451 1454 1455 1458 1465 1469 1470 1471 1472 1470 1469 1466 1462 1464 1473 1471 1469 1471 1468 1471 1475 1475 1469 1457 1429 1396 1357 1344 1330 1317 1301 1305 1308 1312 1312 1307 1292 1282 1275 1264 1256 1256 1257 1262 1274 1291 1306 1313 1318 1323 1328 1331 1345 1356 1373 1394 1418 1447 1463 1460 -9999 -9999 -9999 -9999 -9999 -9999 -9999 -9999 -9999 -9999 -9999 -9999 -9999 -9999 -9999 -9999 -9999 -9999 -9999 -9999 -9999 -9999 -9999 -9999 -9999 -9999 -9999 -9999 -9999 -9999 -9999 -9999 -9999 -9999 -9999 -9999 -9999 -9999 -9999 -9999 -9999 -9999 -9999 -9999 -9999 -9999 -9999 -9999 -9999 -9999 -9999 -9999 -9999 -9999 -9999 -9999 -9999
-9999 -9999 -9999 -9999 -9999 -9999 -9999 1825 1836 1840 1852 1870 1864 1852 1850 1837 1833 1829 1819 1805 1799 1793 1778 1777 1755 1746 1727 1719 1720 1716 1707 1696 1690 1679 1664 1661 1649 1636 1620 1602 1583 1553 1534 1515 1495 1466 1438 1409 1379 1365 1354 1358 1367 1371 1378 1376 1380 1386 1387 1387 1392 1398 1403 1408 1414 1420 1426 1433 1439 1444 1444 1442 1445 1444 1440 1432 1427 1428 1431 1428 1428 1431 1432 1435 1436 1439 1437 1426 1410 1403 1374 1322 1310 1301 1302 1307 1312 1312 1311 1307 1302 1290 1277 1260 1260 1264 1267 1275 1289 1306 1318 1323 1330 1337 1343 1354 1368 1383 1405 1428 1448 1469 1476 -9999 -9999 -9999 -9999 -9999 -9999 -9999 -9999 -9999 -9999 -9999 -9999 -9999 -9999 -9999 -9999 -9999 -9999 -9999 -9999 -9999 -9999 -9999 -9999 -9999 -9999 -9999 -9999 -9999 -9999 -9999 -9999 -9999 -9999 -9999 -9999 -9999 -9999 -9999 -9999 -9999 -9999 -9999 -9999 -9999 -9999 -9999 -9999 -9999 -9999 -9999 -9999 -9999 -9999 -9999 -9999 -9999 -9999
-9999 -9999 -9999 -9999 -9999 -9999 -9999 1800 1807 1814 1828 1849 1839 1839 1836 1833 1817 1816 1809 1800 1803 1787 1777 1777 1765 1746 1729 1716 1704 1698 1693 1685 1690 1679 1663 1641 1634 1634 1617 1602 1585 1567 1530 1509 1479 1444 1411 1384 1361 1351 1342 1341 1348 1355 1359 1358 1354 1354 1355 1350 1356 1365 1370 1374 1384 1396 1406 1416 1420 1425 1428 1424 1422 1421 1417 1407 1399 1396 1393 1391 1393 1395 1395 1395 1397 1399 1396 1388 1390 1368 1335 1301 1292 1291 1296 1301 1301 1301 1298 1291 1285 1283 1272 1260 1262 1273 1278 1289 1301 1315 1332 1340 1346 1355 1366 1379 1392 1409 1433 1457 1473 1481 1480 -9999 -9999 -9999 -9999 -9999 -9999 -9999 -9999 -9999 -9999 -9999 -9999 -9999 -9999 -9999 -9999 -9999 -9999 -9999 -9999 -9999 -9999 -9999 -9999 -9999 -9999 -9999 -9999 -9999 -9999 -9999 -9999 -9999 -9999 -9999 -9999 -9999 -9999 -9999 -9999 -9999 -9999 -9999 -9999 -9999 -9999 -9999 -9999 -9999 -9999 -9999 -9999 -9999 -9999 -9999 -9999 -9999 -9999
-9999 -9999 -9999 -9999 -9999 -9999 -9999 1789 1786 1798 1823 1815 1813 1813 1820 1823 1812 1806 1799 1799 1797 1783 1779 1770 1760 1744 1729 1713 1705 1693 1692 1682 1678 1674 1662 1652 1641 1628 1610 1596 1580 1568 1524 1502 1463 1428 1401 1378 1360 1343 1340 1340 1339 1340 1346 1347 1337 1337 1337 1336 1337 1341 1342 1347 1360 1374 1393 1404 1406 1408 1411 1409 1405 1402 1399 1390 1384 1375 1367 1361 1361 1362 1363 1360 1358 1352 1344 1338 1326 1312 1295 1288 1287 1284 1288 1286 1287 1288 1287 1282 1279 1263 1262 1265 1280 1286 1291 1301 1316 1332 1346 1356 1367 1378 1393 1407 1422 1441 1464 1485 1500 1496 1493 -9999 -9999 -9999 -9999 -9999 -9999 -9999 -9999 -9999 -9999 -9999 -9999 -9999 -9999 -9999 -9999 -9999 -9999 -9999 -9999 -9999 -9999 -9999 -9999 -9999 -9999 -9999 -9999 -9999 -9999 -9999 -9999 -9999 -9999 -9999 -9999 -9999 -9999 -9999 -9999 -9999 -9999 -9999 -9999 -9999 -9999 -9999 -9999 -9999 -9999 -9999 -9999 -9999 -9999 -9999 -9999 -9999 -9999
-9999 -9999 -9999 -9999 -9999 -9999 1778 1775 1776 1787 1794 1789 1795 1797 1790 1801 1810 1800 1791 1799 1784 1767 1775 1759 1754 1732 1729 1710 1696 1686 1680 1675 1671 1667 1660 1641 1634 1635 1624 1611 1581 1532 1520 1493 1452 1425 1404 1384 1360 1342 1341 1340 1340 1340 1337 1337 1337 1338 1338 1339 1339 1338 1338 1337 1346 1357 1376 1389 1393 1395 1397 1397 1395 1390 1385 1377 1370 1360 1346 1334 1332 1332 1334 1331 1325 1318 1312 1303 1296 1285 1280 1282 1284 1279 1276 1272 1273 1268 1267 1267 1269 1275 1280 1289 1302 1302 1307 1319 1335 1351 1362 1380 1390 1404 1425 1443 1458 1476 1499 1518 1524 1525 -9999 -9999 -9999 -9999 -9999 -9999 -9999 -9999 -9999 -9999 -9999 -9999 -9999 -9999 -9999 -9999 -9999 -9999 -9999 -9999 -9999 -9999 -9999 -9999 -9999 -9999 -9999 -9999 -9999 -9999 -9999 -9999 -9999 -9999 -9999 -9999 -9999 -9999 -9999 -9999 -9999 -9999 -9999 -9999 -9999 -9999 -9999 -9999 -9999 -9999 -9999 -9999 -9999 -9999 -9999 -9999 -9999 -9999 -9999
-9999 -9999 -9999 -9999 -9999 1757 1761 1761 1767 1779 1778 1766 1780 1774 1768 1766 1785 1787 1782 1780 1767 1755 1759 1741 1734 1723 1722 1705 1688 1678 1670 1670 1663 1657 1647 1642 1631 1627 1615 1606 1538 1503 1483 1472 1451 1421 1397 1382 1355 1342 1341 1341 1341 1340 1340 1339 1339 1339 1339 1339 1339 1339 1338 1338 1338 1339 1354 1365 1376 1383 1386 1384 1384 1381 1375 1365 1352 1342 1330 1317 1308 1306 1307 1306 1303 1298 1298 1287 1281 1278 1278 1278 1278 1278 1276 1283 1279 1280 1283 1279 1279 1280 1295 1297 1304 1322 1326 1338 1357 1375 1391 1407 1417 1432 1457 1478 1497 1516 1541 1553 1556 1555 -9999 -9999 -9999 -9999 -9999 -9999 -9999 -9999 -9999 -9999 -9999 -9999 -9999 -9999 -9999 -9999 -9999 -9999 -9999 -9999 -9999 -9999 -9999 -9999 -9999 -9999 -9999 -9999 -9999 -9999 -9999 -9999 -9999 -9999 -9999 -9999 -9999 -9999 -9999 -9999 -9999 -9999 -9999 -9999 -9999 -9999 -9999 -9999 -9999 -9999 -9999 -9999 -9999 -9999 -9999 -9999 -9999 -9999 -9999
-9999 -9999 -9999 1746 1745 1741 1736 1742 1748 1756 1754 1756 1748 1759 1754 1751 1752 1768 1776 1765 1757 1753 1741 1726 1716 1709 1715 1695 1684 1672 1659 1645 1643 1640 1642 1633 1622 1617 1610 1584 1525 1495 1478 1453 1432 1416 1399 1388 1364 1348 1343 1343 1342 1341 1341 1340 1340 1339 1339 1339 1339 1339 1339 1338 1337 1337 1338 1339 1351 1363 1368 1366 1365 1364 1357 1346 1335 1326 1317 1305 1303 1292 1289 1287 1288 1282 1282 1280 1279 1279 1280 1288 1293 1297 1300 1300 1297 1294 1291 1288 1290 1293 1307 1312 1322 1334 1345 1359 1378 1403 1423 1437 1453 1469 1490 1512 1534 1556 1574 1589 -9999 -9999 -9999 -9999 -9999 -9999 -9999 -9999 -9999 -9999 -9999 -9999 -9999 -9999 -9999 -9999 -9999 -9999 -9999 -9999 -9999 -9999 -9999 -9999 -9999 -9999 -9999 -9999 -9999 -9999 -9999 -9999 -9999 -9999 -9999 -9999 -9999 -9999 -9999 -9999 -9999 -9999 -9999 -9999 -9999 -9999 -9999 -9999 -9999 -9999 -9999 -9999 -9999 -9999 -9999 -9999 -9999 -9999 -9999 -9999 -9999
-9999 -9999 -9999 1742 1732 1725 1722 1742 1723 1737 1733 1737 1733 1729 1742 1741 1731 1730 1750 1759 1739 1744 1730 1719 1706 1699 1697 1680 1669 1654 1641 1631 1622 1617 1618 1611 1602 1597 1593 1530 1507 1483 1464 1448 1431 1425 1406 1399 1384 1368 1347 1345 1344 1343 1342 1341 1340 1340 1340 1339 1339 1338 1338 1338 1337 1336 1336 1338 1334 1346 1353 1352 1350 1347 1337 1328 1322 1317 1311 1308 1306 1301 1295 1288 1282 1283 1281 1282 1285 1287 1294 1304 1312 1321 1322 1315 1312 1306 1301 1303 1308 1308 1316 1328 1341 1355 1366 1391 1404 1430 1450 1464 1482 1502 1524 1547 1571 1589 1600 -9999 -9999 -9999 -9999 -9999 -9999 -9999 -9999 -9999 -9999 -9999 -9999 -9999 -9999 -9999 -9999 -9999 -9999 -9999 -9999 -9999 -9999 -9999 -9999 -9999 -9999 -9999 -9999 -9999 -9999 -9999 -9999 -9999 -9999 -9999 -9999 -9999 -9999 -9999 -9999 -9999 -9999 -9999 -9999 -9999 -9999 -9999 -9999 -9999 -9999 -9999 -9999 -9999 -9999 -9999 -9999 -9999 -9999 -9999 -9999 -9999 -9999
-9999 -9999 -9999 1741 1740 1726 1713 1725 1711 1715 1722 1715 1720 1723 1718 1717 1719 1716 1720 1713 1711 1731 1717 1707 1699 1683 1685 1672 1664 1650 1637 1624 1609 1598 1600 1588 1588 1551 1533 1509 1486 1469 1458 1443 1432 1426 1417 1409 1402 1385 1363 1347 1345 1344 1343 1342 1341 1340 1340 1340 1338 1339 1338 1335 1338 1348 1339 1337 1338 1340 1347 1347 1344 1340 1328 1322 1317 1312 1312 1313 1309 1304 1296 1288 1286 1286 1288 1299 1306 1312 1321 1328 1332 1338 1336 1329 1328 1323 1320 1322 1330 1331 1329 1355 1363 1377 1394 1410 1435 1454 1473 1489 1504 1528 1552 1579 1601 1607 -9999 -9999 -9999 -9999 -9999 -9999 -9999 -9999 -9999 -9999 -9999 -9999 -9999 -9999 -9999 -9999 -9999 -9999 -9999 -9999 -9999 -9999 -9999 -9999 -9999 -9999 -9999 -9999 -9999 -9999 -9999 -9999 -9999 -9999 -9999 -9999 -9999 -9999 -9999 -9999 -9999 -9999 -9999 -9999 -9999 -9999 -9999 -9999 -9999 -9999 -9999 -9999 -9999 -9999 -9999 -9999 -9999 -9999 -9999 -9999 -9999 -9999 -9999
-9999 -9999 1749 1744 1740 1724 1712 1712 1712 1696 1705 1706 1701 1704 1706 1703 1709 1704 1704 1687 1697 1700 1688 1691 1684 1672 1665 1662 1648 1641 1626 1616 1600 1582 1579 1565 1543 1518 1503 1483 1471 1467 1453 1444 1436 1426 1422 1415 1405 1394 1382 1366 1345 1345 1343 1342 1341 1340 1340 1340 1339 1340 1340 1341 1352 1354 1355 1337 1338 1338 1341 1338 1334 1330 1334 1322 1321 1319 1319 1320 1315 1308 1298 1296 1297 1302 1311 1324 1332 1337 1338 1343 1343 1339 1343 1348 1349 1347 1345 1347 1356 1360 1355 1384 1390 1404 1423 1435 1449 1471 1492 1514 1532 1546 1573 1602 1629 1636 -9999 -9999 -9999 -9999 -9999 -9999 -9999 -9999 -9999 -9999 -9999 -9999 -9999 -9999 -9999 -9999 -9999 -9999 -9999 -9999 -9999 -9999 -9999 -9999 -9999 -9999 -9999 -9999 -9999 -9999 -9999 -9999 -9999 -9999 -9999 -9999 -9999 -9999 -9999 -9999 -9999 -9999 -9999 -9999 -9999 -9999 -9999 -9999 -9999 -9999 -9999 -9999 -9999 -9999 -9999 -9999 -9999 -9999 -9999 -9999 -9999 -9999 -9999
-9999 -9999 1768 1744 1734 1717 1708 1700 1703 1703 1681 1687 1688 1698 1691 1693 1690 1694 1691 1676 1678 1673 1662 1659 1667 1660 1646 1640 1627 1616 1606 1596 1585 1556 1538 1519 1503 1486 1481 1468 1461 1454 1449 1446 1438 1430 1422 1415 1402 1404 1397 1386 1370 1351 1346 1343 1341 1341 1341 1339 1337 1338 1345 1357 1353 1361 1356 1344 1336 1337 1343 1339 1331 1332 1343 1343 1335 1325 1325 1326 1323 1316 1310 1314 1319 1330 1340 1348 1354 1356 1359 1354 1353 1358 1368 1373 1373 1375 1378 1382 1387 1399 1386 1411 1422 1429 1441 1453 1468 1490 1513 1538 1557 1578 1601 1630 1663 -9999 -9999 -9999 -9999 -9999 -9999 -9999 -9999 -9999 -9999 -9999 -9999 -9999 -9999 -9999 -9999 -9999 -9999 -9999 -9999 -9999 -9999 -9999 -9999 -9999 -9999 -9999 -9999 -9999 -9999 -9999 -9999 -9999 -9999 -9999 -9999 -9999 -9999 -9999 -9999 -9999 -9999 -9999 -9999 -9999 -9999 -9999 -9999 -9999 -9999 -9999 -9999 -9999 -9999 -9999 -9999 -9999 -9999 -9999 -9999 -9999 -9999 -9999 -9999
-9999 -9999 1768 1750 1736 1721 1705 1697 1688 1695 1686 1680 1678 1686 1687 1674 1669 1671 1674 1672 1659 1651 1644 1638 1644 1632 1622 1620 1619 1603 1592 1575 1568 1532 1493 1483 1476 1469 1465 1459 1456 1454 1451 1444 1437 1429 1416 1409 1416 1416 1413 1397 1386 1378 1364 1363 1351 1343 1344 1345 1352 1354 1351 1357 1370 1372 1366 1357 1348 1340 1340 1342 1347 1355 1361 1356 1348 1346 1351 1347 1334 1332 1326 1335 1343 1350 1359 1360 1367 1372 1370 1371 1371 1380 1392 1397 1402 1409 1419 1425 1425 1423 1422 1431 1431 1440 1455 1472 1491 1515 1536 1559 1583 1608 1628 1662 1688 -9999 -9999 -9999 -9999 -9999 -9999 -9999 -9999 -9999 -9999 -9999 -9999 -9999 -9999 -9999 -9999 -9999 -9999 -9999 -9999 -9999 -9999 -9999 -9999 -9999 -9999 -9999 -9999 -9999 -9999 -9999 -9999 -9999 -9999 -9999 -9999 -9999 -9999 -9999 -9999 -9999 -9999 -9999 -9999 -9999 -9999 -9999 -9999 -9999 -9999 -9999 -9999 -9999 -9999 -9999 -9999 -9999 -9999 -9999 -9999 -9999 -9999 -9999 -9999
-9999 1803 1786 1768 1750 1731 1713 1701 1688 1675 1679 1676 1668 1674 1683 1683 1654 1653 1660 1664 1662 1647 1636 1629 1630 1625 1609 1585 1585 1589 1571 1560 1541 1505 1478 1470 1461 1458 1454 1450 1447 1450 1438 1433 1432 1423 1430 1429 1430 1432 1426 1418 1391 1401 1383 1379 1371 1363 1361 1370 1374 1375 1369 1371 1374 1381 1372 1363 1360 1350 1347 1356 1356 1358 1363 1356 1365 1371 1375 1371 1356 1349 1347 1350 1363 1367 1377 1377 1380 1383 1388 1392 1398 1404 1415 1424 1434 1445 1460 1461 1444 1437 1426 1430 1442 1447 1465 1485 1509 1533 1557 1583 1609 1636 1666 1702 -9999 -9999 -9999 -9999 -9999 -9999 -9999 -9999 -9999 -9999 -9999 -9999 -9999 -9999 -9999 -9999 -9999 -9999 -9999 -9999 -9999 -9999 -9999 -9999 -9999 -9999 -9999 -9999 -9999 -9999 -9999 -9999 -9999 -9999 -9999 -9999 -9999 -9999 -9999 -9999 -9999 -9999 -9999 -9999 -9999 -9999 -9999 -9999 -9999 -9999 -9999 -9999 -9999 -9999 -9999 -9999 -9999 -9999 -9999 -9999 -9999 -9999 -9999 -9999 -9999
-9999 1834 1805 1789 1767 1747 1726 1707 1692 1684 1681 1684 1680 1668 1659 1665 1671 1649 1649 1644 1651 1637 1634 1619 1621 1608 1596 1577 1557 1540 1527 1516 1496 1479 1465 1455 1456 1453 1449 1444 1439 1440 1436 1433 1439 1439 1442 1445 1449 1451 1450 1443 1414 1416 1402 1403 1395 1385 1383 1394 1397 1395 1392 1391 1385 1384 1377 1370 1357 1356 1358 1361 1363 1367 1365 1375 1392 1397 1397 1391 1382 1376 1373 1376 1381 1386 1392 1393 1398 1405 1413 1423 1428 1425 1437 1449 1464 1485 1499 1470 1451 1441 1433 1436 1448 1458 1476 1497 1527 1553 1582 1615 1638 1663 1707 -9999 -9999 -9999 -9999 -9999 -9999 -9999 -9999 -9999 -9999 -9999 -9999 -9999 -9999 -9999 -9999 -9999 -9999 -9999 -9999 -9999 -9999 -9999 -9999 -9999 -9999 -9999 -9999 -9999 -9999 -9999 -9999 -9999 -9999 -9999 -9999 -9999 -9999 -9999 -9999 -9999 -9999 -9999 -9999 -9999 -9999 -9999 -9999 -9999 -9999 -9999 -9999 -9999 -9999 -9999 -9999 -9999 -9999 -9999 -9999 -9999 -9999 -9999 -9999 -9999 -9999
-9999 1862 1829 1801 1782 1763 1740 1720 1704 1693 1687 1683 1683 1678 1669 1665 1647 1654 1645 1645 1638 1636 1630 1621 1599 1597 1575 1558 1549 1534 1510 1495 1478 1467 1459 1458 1453 1448 1453 1458 1444 1441 1450 1447 1449 1453 1457 1463 1469 1471 1468 1453 1453 1446 1439 1436 1425 1415 1408 1418 1421 1415 1411 1410 1400 1392 1381 1376 1375 1372 1375 1380 1379 1385 1387 1395 1408 1411 1403 1410 1413 1409 1397 1404 1405 1406 1409 1416 1422 1430 1434 1438 1446 1453 1462 1470 1492 1531 1504 1478 1463 1448 1442 1446 1458 1473 1489 1512 1537 1575 1604 1628 1671 1701 -9999 -9999 -9999 -9999 -9999 -9999 -9999 -9999 -9999 -9999 -9999 -9999 -9999 -9999 -9999 -9999 -9999 -9999 -9999 -9999 -9999 -9999 -9999 -9999 -9999 -9999 -9999 -9999 -9999 -9999 -9999 -9999 -9999 -9999 -9999 -9999 -9999 -9999 -9999 -9999 -9999 -9999 -9999 -9999 -9999 -9999 -9999 -9999 -9999 -9999 -9999 -9999 -9999 -9999 -9999 -9999 -9999 -9999 -9999 -9999 -9999 -9999 -9999 -9999 -9999 -9999 -9999
-9999 1902 1875 1835 1801 1777 1753 1729 1708 1701 1690 1679 1675 1681 1676 1665 1658 1637 1631 1621 1624 1635 1638 1635 1625 1618 1584 1556 1516 1515 1498 1484 1472 1470 1470 1467 1466 1464 1460 1448 1450 1456 1454 1457 1462 1468 1475 1485 1489 1486 1481 1457 1471 1468 1465 1462 1452 1446 1431 1435 1437 1434 1418 1412 1407 1400 1393 1395 1399 1398 1407 1409 1402 1411 1416 1419 1415 1420 1427 1437 1440 1435 1425 1413 1421 1426 1435 1441 1448 1454 1459 1465 1475 1477 1485 1502 1525 1532 1499 1483 1475 1453 1455 1458 1468 1488 1506 1532 1565 1606 1631 1658 1696 -9999 -9999 -9999 -9999 -9999 -9999 -9999 -9999 -9999 -9999 -9999 -9999 -9999 -9999 -9999 -9999 -9999 -9999 -9999 -9999 -9999 -9999 -9999 -9999 -9999 -9999 -9999 -9999 -9999 -9999 -9999 -9999 -9999 -9999 -9999 -9999 -9999 -9999 -9999 -9999 -9999 -9999 -9999 -9999 -9999 -9999 -9999 -9999 -9999 -9999 -9999 -9999 -9999 -9999 -9999 -9999 -9999 -9999 -9999 -9999 -9999 -9999 -9999 -9999 -9999 -9999 -9999 -9999
-9999 -9999 1873 1845 1816 1792 1768 1744 1730 1717 1702 1688 1675 1670 1670 1663 1653 1650 1647 1636 1617 1610 1606 1609 1597 1592 1599 1560 1547 1525 1493 1482 1479 1475 1473 1477 1470 1462 1455 1452 1462 1462 1466 1471 1480 1487 1497 1507 1505 1506 1500 1484 1488 1486 1483 1482 1479 1477 1449 1449 1448 1442 1425 1421 1423 1419 1412 1416 1423 1423 1420 1417 1421 1431 1438 1439 1442 1452 1454 1461 1460 1455 1449 1441 1434 1446 1455 1466 1473 1483 1490 1500 1505 1503 1513 1534 1554 1528 1505 1490 1477 1470 1470 1475 1480 1505 1525 1552 1593 1631 1676 1700 1725 -9999 -9999 -9999 -9999 -9999 -9999 -9999 -9999 -9999 -9999 -9999 -9999 -9999 -9999 -9999 -9999 -9999 -9999 -9999 -9999 -9999 -9999 -9999 -9999 -9999 -9999 -9999 -9999 -9999 -9999 -9999 -9999 -9999 -9999 -9999 -9999 -9999 -9999 -9999 -9999 -9999 -9999 -9999 -9999 -9999 -9999 -9999 -9999 -9999 -9999 -9999 -9999 -9999 -9999 -9999 -9999 -9999 -9999 -9999 -9999 -9999 -9999 -9999 -9999 -9999 -9999 -9999 -9999
-9999 -9999 1915 1885 1837 1805 1782 1773 1759 1735 1716 1696 1680 1673 1661 1653 1649 1652 1646 1641 1642 1639 1623 1599 1606 1571 1558 1588 1563 1539 1521 1504 1483 1495 1495 1475 1466 1476 1474 1474 1468 1475 1482 1493 1500 1508 1517 1519 1523 1520 1505 1502 1504 1503 1504 1501 1496 1482 1475 1464 1458 1445 1440 1444 1446 1440 1436 1442 1450 1449 1430 1426 1437 1448 1455 1455 1462 1468 1467 1473 1476 1480 1476 1467 1456 1467 1478 1492 1501 1514 1523 1531 1530 1532 1546 1569 1563 1541 1524 1513 1497 1496 1495 1504 1512 1521 1544 1574 1612 1656 1703 1730 1737 -9999 -9999 -9999 -9999 -9999 -9999 -9999 -9999 -9999 -9999 -9999 -9999 -9999 -9999 -9999 -9999 -9999 -9999 -9999 -9999 -9999 -9999 -9999 -9999 -9999 -9999 -9999 -9999 -9999 -9999 -9999 -9999 -9999 -9999 -9999 -9999 -9999 -9999 -9999 -9999 -9999 -9999 -9999 -9999 -9999 -9999 -9999 -9999 -9999 -9999 -9999 -9999 -9999 -9999 -9999 -9999 -9999 -9999 -9999 -9999 -9999 -9999 -9999 -9999 -9999 -9999 -9999 -9999
-9999 1925 1898 1880 1858 1837 1825 1815 1775 1756 1729 1708 1692 1682 1670 1664 1658 1656 1655 1657 1649 1645 1640 1630 1629 1605 1581 1555 1537 1523 1498 1506 1514 1508 1479 1482 1495 1498 1492 1480 1488 1498 1493 1515 1521 1528 1533 1539 1528 1524 1514 1510 1515 1520 1523 1524 1508 1493 1482 1470 1462 1454 1464 1474 1475 1464 1459 1470 1483 1475 1452 1440 1452 1469 1476 1478 1478 1479 1481 1481 1487 1494 1494 1488 1485 1491 1504 1520 1538 1542 1548 1554 1554 1561 1579 1586 1580 1565 1555 1549 1539 1539 1536 1544 1532 1554 1568 1602 1644 1689 1720 1765 -9999 -9999 -9999 -9999 -9999 -9999 -9999 -9999 -9999 -9999 -9999 -9999 -9999 -9999 -9999 -9999 -9999 -9999 -9999 -9999 -9999 -9999 -9999 -9999 -9999 -9999 -9999 -9999 -9999 -9999 -9999 -9999 -9999 -9999 -9999 -9999 -9999 -9999 -9999 -9999 -9999 -9999 -9999 -9999 -9999 -9999 -9999 -9999 -9999 -9999 -9999 -9999 -9999 -9999 -9999 -9999 -9999 -9999 -9999 -9999 -9999 -9999 -9999 -9999 -9999 -9999 -9999 -9999 -9999
-9999 1934 1894 1860 1837 1815 1803 1798 1800 1788 1768 1734 1713 1695 1681 1669 1661 1659 1658 1656 1647 1641 1636 1630 1622 1622 1594 1567 1528 1519 1545 1538 1521 1490 1504 1499 1521 1517 1505 1495 1504 1518 1525 1532 1547 1551 1553 1546 1534 1534 1528 1528 1530 1540 1537 1523 1514 1509 1488 1482 1485 1474 1486 1499 1503 1501 1487 1502 1510 1503 1479 1458 1471 1485 1493 1495 1495 1493 1489 1491 1499 1505 1508 1506 1508 1516 1535 1552 1565 1568 1572 1573 1582 1597 1616 1617 1611 1603 1607 1595 1572 1580 1576 1561 1562 1582 1593 1618 1651 1697 1748 1786 -9999 -9999 -9999 -9999 -9999 -9999 -9999 -9999 -9999 -9999 -9999 -9999 -9999 -9999 -9999 -9999 -9999 -9999 -9999 -9999 -9999 -9999 -9999 -9999 -9999 -9999 -9999 -9999 -9999 -9999 -9999 -9999 -9999 -9999 -9999 -9999 -9999 -9999 -9999 -9999 -9999 -9999 -9999 -9999 -9999 -9999 -9999 -9999 -9999 -9999 -9999 -9999 -9999 -9999 -9999 -9999 -9999 -9999 -9999 -9999 -9999 -9999 -9999 -9999 -9999 -9999 -9999 -9999 -9999
1958 1929 1893 1857 1828 1807 1787 1778 1777 1772 1768 1765 1741 1724 1706 1684 1667 1662 1660 1659 1656 1655 1648 1641 1626 1617 1605 1589 1564 1560 1549 1538 1512 1518 1526 1529 1533 1532 1530 1520 1523 1536 1548 1545 1566 1568 1560 1553 1543 1546 1542 1546 1544 1544 1540 1535 1540 1513 1508 1506 1510 1496 1508 1518 1526 1529 1525 1525 1523 1523 1504 1499 1493 1501 1506 1507 1505 1501 1506 1506 1513 1518 1522 1519 1532 1543 1562 1576 1588 1593 1599 1609 1622 1633 1644 1639 1649 1655 1634 1617 1596 1602 1593 1566 1583 1602 1618 1650 1696 1741 1785 -9999 -9999 -9999 -9999 -9999 -9999 -9999 -9999 -9999 -9999 -9999 -9999 -9999 -9999 -9999 -9999 -9999 -9999 -9999 -9999 -9999 -9999 -9999 -9999 -9999 -9999 -9999 -9999 -9999 -9999 -9999 -9999 -9999 -9999 -9999 -9999 -9999 -9999 -9999 -9999 -9999 -9999 -9999 -9999 -9999 -9999 -9999 -9999 -9999 -9999 -9999 -9999 -9999 -9999 -9999 -9999 -9999 -9999 -9999 -9999 -9999 -9999 -9999 -9999 -9999 -9999 -9999 -9999 -9999 -9999
1957 1925 1887 1851 1821 1797 1780 1764 1759 1751 1744 1744 1744 1738 1726 1704 1673 1657 1650 1649 1652 1650 1645 1639 1630 1627 1617 1597 1579 1559 1550 1541 1515 1543 1542 1536 1541 1545 1549 1534 1546 1558 1567 1563 1567 1566 1560 1556 1548 1557 1557 1560 1554 1553 1547 1547 1554 1549 1537 1538 1531 1527 1526 1536 1539 1535 1535 1536 1537 1538 1534 1535 1523 1520 1522 1529 1525 1527 1526 1525 1524 1531 1536 1537 1561 1580 1599 1610 1620 1621 1630 1646 1660 1668 1654 1638 1647 1644 1632 1608 1596 1596 1590 1587 1603 1622 1644 1678 1721 1771 -9999 -9999 -9999 -9999 -9999 -9999 -9999 -9999 -9999 -9999 -9999 -9999 -9999 -9999 -9999 -9999 -9999 -9999 -9999 -9999 -9999 -9999 -9999 -9999 -9999 -9999 -9999 -9999 -9999 -9999 -9999 -9999 -9999 -9999 -9999 -9999 -9999 -9999 -9999 -9999 -9999 -9999 -9999 -9999 -9999 -9999 -9999 -9999 -9999 -9999 -9999 -9999 -9999 -9999 -9999 -9999 -9999 -9999 -9999 -9999 -9999 -9999 -9999 -9999 -9999 -9999 -9999 -9999 -9999 -9999 -9999
1949 1925 1881 1845 1816 1790 1765 1755 1746 1739 1727 1719 1719 1715 1711 1701 1686 1668 1648 1643 1651 1652 1643 1640 1631 1624 1616 1604 1580 1563 1555 1548 1545 1550 1546 1548 1551 1554 1561 1557 1568 1578 1570 1564 1568 1564 1560 1559 1564 1568 1568 1564 1563 1565 1563 1565 1558 1557 1551 1549 1543 1540 1537 1548 1545 1541 1546 1550 1553 1560 1553 1549 1548 1543 1541 1560 1561 1557 1553 1553 1547 1548 1553 1565 1598 1620 1635 1639 1651 1659 1666 1683 1692 1670 1653 1640 1640 1646 1635 1607 1598 1603 1595 1606 1623 1643 1670 1707 1751 -9999 -9999 -9999 -9999 -9999 -9999 -9999 -9999 -9999 -9999 -9999 -9999 -9999 -9999 -9999 -9999 -9999 -9999 -9999 -9999 -9999 -9999 -9999 -9999 -9999 -9999 -9999 -9999 -9999 -9999 -9999 -9999 -9999 -9999 -9999 -9999 -9999 -9999 -9999 -9999 -9999 -9999 -9999 -9999 -9999 -9999 -9999 -9999 -9999 -9999 -9999 -9999 -9999 -9999 -9999 -9999 -9999 -9999 -9999 -9999 -9999 -9999 -9999 -9999 -9999 -9999 -9999 -9999 -9999 -9999 -9999 -9999
-9999 1922 1875 1842 1813 1786 1762 1743 1737 1727 1721 1708 1707 1696 1685 1681 1674 1666 1655 1638 1629 1628 1630 1633 1632 1620 1608 1596 1576 1565 1557 1548 1558 1560 1556 1563 1567 1567 1577 1584 1588 1585 1581 1579 1573 1571 1570 1572 1583 1581 1581 1574 1579 1580 1594 1586 1572 1569 1562 1561 1554 1552 1550 1553 1550 1555 1561 1570 1578 1572 1567 1568 1574 1573 1570 1584 1589 1583 1575 1572 1569 1572 1579 1596 1630 1648 1668 1678 1689 1703 1709 1698 1684 1659 1644 1634 1631 1630 1622 1604 1608 1601 1613 1626 1648 1675 1708 1740 -9999 -9999 -9999 -9999 -9999 -9999 -9999 -9999 -9999 -9999 -9999 -9999 -9999 -9999 -9999 -9999 -9999 -9999 -9999 -9999 -9999 -9999 -9999 -9999 -9999 -9999 -9999 -9999 -9999 -9999 -9999 -9999 -9999 -9999 -9999 -9999 -9999 -9999 -9999 -9999 -9999 -9999 -9999 -9999 -9999 -9999 -9999 -9999 -9999 -9999 -9999 -9999 -9999 -9999 -9999 -9999 -9999 -9999 -9999 -9999 -9999 -9999 -9999 -9999 -9999 -9999 -9999 -9999 -9999 -9999 -9999 -9999 -9999
-9999 -9999 1905 1857 1820 1789 1763 1742 1729 1715 1711 1710 1698 1690 1683 1672 1663 1655 1649 1645 1634 1623 1619 1612 1612 1606 1595 1584 1575 1567 1557 1562 1567 1563 1574 1574 1578 1589 1593 1599 1596 1592 1583 1589 1591 1594 1590 1595 1599 1599 1600 1600 1602 1597 1593 1590 1588 1584 1576 1574 1565 1562 1562 1562 1565 1570 1575 1589 1597 1597 1595 1594 1603 1607 1605 1610 1610 1610 1608 1600 1588 1599 1620 1631 1657 1672 1691 1733 1733 1723 1702 1694 1675 1662 1648 1637 1625 1617 1611 1614 1613 1611 1628 1648 1677 1713 1748 1759 -9999 -9999 -9999 -9999 -9999 -9999 -9999 -9999 -9999 -9999 -9999 -9999 -9999 -9999 -9999 -9999 -9999 -9999 -9999 -9999 -9999 -9999 -9999 -9999 -9999 -9999 -9999 -9999 -9999 -9999 -9999 -9999 -9999 -9999 -9999 -9999 -9999 -9999 -9999 -9999 -9999 -9999 -9999 -9999 -9999 -9999 -9999 -9999 -9999 -9999 -9999 -9999 -9999 -9999 -9999 -9999 -9999 -9999 -9999 -9999 -9999 -9999 -9999 -9999 -9999 -9999 -9999 -9999 -9999 -9999 -9999 -9999 -9999
-9999 -9999 1916 1877 1833 1803 1778 1758 1740 1724 1716 1705 1695 1687 1687 1677 1674 1658 1651 1644 1635 1625 1618 1607 1599 1596 1588 1582 1579 1568 1569 1569 1573 1575 1583 1593 1610 1610 1610 1617 1619 1615 1608 1607 1610 1611 1612 1612 1617 1624 1624 1612 1615 1606 1604 1601 1596 1590 1585 1577 1573 1572 1575 1576 1577 1583 1587 1608 1622 1620 1626 1621 1631 1636 1631 1638 1633 1637 1638 1635 1624 1639 1646 1670 1676 1700 1717 1764 1758 1730 1715 1703 1689 1673 1657 1645 1629 1619 1616 1620 1615 1624 1643 1667 1690 1743 1771 -9999 -9999 -9999 -9999 -9999 -9999 -9999 -9999 -9999 -9999 -9999 -9999 -9999 -9999 -9999 -9999 -9999 -9999 -9999 -9999 -9999 -9999 -9999 -9999 -9999 -9999 -9999 -9999 -9999 -9999 -9999 -9999 -9999 -9999 -9999 -9999 -9999 -9999 -9999 -9999 -9999 -9999 -9999 -9999 -9999 -9999 -9999 -9999 -9999 -9999 -9999 -9999 -9999 -9999 -9999 -9999 -9999 -9999 -9999 -9999 -9999 -9999 -9999 -9999 -9999 -9999 -9999 -9999 -9999 -9999 -9999 -9999 -9999 -9999
-9999 -9999 -9999 1901 1858 1821 1799 1780 1761 1742 1734 1715 1704 1700 1695 1686 1676 1669 1664 1665 1657 1646 1620 1608 1598 1590 1585 1581 1582 1574 1574 1580 1582 1591 1609 1612 1616 1623 1632 1645 1647 1627 1627 1623 1629 1632 1638 1640 1652 1657 1646 1628 1626 1622 1619 1617 1614 1606 1596 1591 1591 1590 1593 1595 1594 1603 1607 1632 1641 1645 1647 1649 1661 1677 1657 1656 1659 1666 1670 1662 1668 1678 1683 1695 1707 1717 1741 1782 1772 1753 1740 1723 1705 1685 1665 1649 1637 1628 1626 1629 1628 1643 1661 1687 1724 1777 -9999 -9999 -9999 -9999 -9999 -9999 -9999 -9999 -9999 -9999 -9999 -9999 -9999 -9999 -9999 -9999 -9999 -9999 -9999 -9999 -9999 -9999 -9999 -9999 -9999 -9999 -9999 -9999 -9999 -9999 -9999 -9999 -9999 -9999 -9999 -9999 -9999 -9999 -9999 -9999 -9999 -9999 -9999 -9999 -9999 -9999 -9999 -9999 -9999 -9999 -9999 -9999 -9999 -9999 -9999 -9999 -9999 -9999 -9999 -9999 -9999 -9999 -9999 -9999 -9999 -9999 -9999 -9999 -9999 -9999 -9999 -9999 -9999 -9999 -9999
-9999 -9999 -9999 -9999 1873 1859 1820 1803 1782 1771 1758 1738 1733 1723 1713 1699 1695 1681 1676 1670 1667 1661 1638 1621 1603 1594 1590 1589 1586 1580 1590 1600 1603 1609 1624 1629 1633 1639 1658 1678 1660 1664 1654 1641 1647 1659 1672 1670 1669 1668 1652 1650 1654 1639 1634 1638 1637 1630 1619 1616 1618 1615 1616 1620 1619 1624 1639 1655 1661 1667 1671 1681 1696 1697 1686 1695 1691 1697 1697 1699 1706 1714 1719 1730 1741 1751 1778 1802 1796 1780 1760 1743 1719 1704 1684 1664 1646 1643 1639 1637 1651 1668 1686 1720 1768 -9999 -9999 -9999 -9999 -9999 -9999 -9999 -9999 -9999 -9999 -9999 -9999 -9999 -9999 -9999 -9999 -9999 -9999 -9999 -9999 -9999 -9999 -9999 -9999 -9999 -9999 -9999 -9999 -9999 -9999 -9999 -9999 -9999 -9999 -9999 -9999 -9999 -9999 -9999 -9999 -9999 -9999 -9999 -9999 -9999 -9999 -9999 -9999 -9999 -9999 -9999 -9999 -9999 -9999 -9999 -9999 -9999 -9999 -9999 -9999 -9999 -9999 -9999 -9999 -9999 -9999 -9999 -9999 -9999 -9999 -9999 -9999 -9999 -9999 -9999 -9999
-9999 -9999 -9999 -9999 1940 1927 1900 1874 1870 1816 1819 1776 1765 1753 1741 1722 1707 1703 1691 1691 1687 1678 1656 1637 1628 1615 1606 1594 1593 1600 1610 1617 1626 1642 1654 1653 1660 1672 1689 1692 1679 1683 1680 1672 1690 1684 1683 1687 1684 1676 1676 1672 1668 1664 1662 1666 1665 1659 1652 1648 1648 1644 1642 1649 1647 1651 1672 1680 1686 1694 1701 1722 1742 1732 1723 1726 1737 1736 1729 1732 1743 1755 1751 1755 1758 1783 1808 1852 1828 1814 1788 1760 1743 1720 1703 1680 1669 1662 1655 1663 1678 1695 1714 1753 -9999 -9999 -9999 -9999 -9999 -9999 -9999 -9999 -9999 -9999 -9999 -9999 -9999 -9999 -9999 -9999 -9999 -9999 -9999 -9999 -9999 -9999 -9999 -9999 -9999 -9999 -9999 -9999 -9999 -9999 -9999 -9999 -9999 -9999 -9999 -9999 -9999 -9999 -9999 -9999 -9999 -9999 -9999 -9999 -9999 -9999 -9999 -9999 -9999 -9999 -9999 -9999 -9999 -9999 -9999 -9999 -9999 -9999 -9999 -9999 -9999 -9999 -9999 -9999 -9999 -9999 -9999 -9999 -9999 -9999 -9999 -9999 -9999 -9999 -9999 -9999 -9999
-9999 -9999 -9999 -9999 -9999 -9999 -9999 1898 1872 1844 1833 1802 1790 1788 1780 1758 1743 1726 1719 1709 1696 1682 1672 1665 1661 1647 1633 1622 1616 1622 1625 1636 1646 1658 1672 1682 1683 1694 1705 1695 1692 1701 1704 1708 1716 1711 1709 1717 1707 1699 1694 1691 1690 1692 1693 1696 1696 1690 1685 1683 1681 1676 1675 1679 1686 1693 1705 1709 1716 1721 1734 1761 1773 1759 1744 1746 1765 1768 1763 1769 1787 1792 1785 1788 1792 1813 1858 1893 1880 1853 1840 1805 1793 1773 1758 1731 1701 1681 1679 1691 1708 1726 1758 1779 -9999 -9999 -9999 -9999 -9999 -9999 -9999 -9999 -9999 -9999 -9999 -9999 -9999 -9999 -9999 -9999 -9999 -9999 -9999 -9999 -9999 -9999 -9999 -9999 -9999 -9999 -9999 -9999 -9999 -9999 -9999 -9999 -9999 -9999 -9999 -9999 -9999 -9999 -9999 -9999 -9999 -9999 -9999 -9999 -9999 -9999 -9999 -9999 -9999 -9999 -9999 -9999 -9999 -9999 -9999 -9999 -9999 -9999 -9999 -9999 -9999 -9999 -9999 -9999 -9999 -9999 -9999 -9999 -9999 -9999 -9999 -9999 -9999 -9999 -9999 -9999 -9999
-9999 -9999 -9999 -9999 -9999 -9999 -9999 1913 1888 1858 1839 1824 1811 1797 1786 1773 1757 1743 1732 1735 1717 1700 1692 1691 1692 1672 1660 1647 1643 1642 1648 1659 1669 1688 1701 1702 1712 1722 1727 1710 1720 1727 1737 1749 1743 1740 1736 1736 1729 1716 1711 1707 1714 1720 1724 1727 1728 1721 1724 1723 1716 1709 1712 1726 1733 1724 1736 1740 1746 1751 1765 1804 1808 1788 1772 1771 1793 1813 1805 1806 1828 1829 1819 1820 1837 1857 1864 1906 1905 1883 1866 1849 1852 1819 1777 1743 1728 1697 1713 1722 1740 1761 -9999 -9999 -9999 -9999 -9999 -9999 -9999 -9999 -9999 -9999 -9999 -9999 -9999 -9999 -9999 -9999 -9999 -9999 -9999 -9999 -9999 -9999 -9999 -9999 -9999 -9999 -9999 -9999 -9999 -9999 -9999 -9999 -9999 -9999 -9999 -9999 -9999 -9999 -9999 -9999 -9999 -9999 -9999 -9999 -9999 -9999 -9999 -9999 -9999 -9999 -9999 -9999 -9999 -9999 -9999 -9999 -9999 -9999 -9999 -9999 -9999 -9999 -9999 -9999 -9999 -9999 -9999 -9999 -9999 -9999 -9999 -9999 -9999 -9999 -9999 -9999 -9999 -9999 -9999
-9999 -9999 -9999 -9999 -9999 -9999 -9999 -9999 1927 1889 1870 1861 1853 1839 1820 1806 1785 1770 1752 1737 1735 1730 1719 1720 1715 1704 1692 1680 1684 1674 1670 1684 1697 1707 1712 1727 1733 1745 1735 1736 1754 1769 1783 1766 1768 1761 1770 1751 1735 1728 1732 1735 1746 1753 1759 1759 1762 1765 1785 1780 1757 1767 1764 1766 1758 1766 1773 1771 1776 1783 1795 1828 1838 1820 1811 1807 1833 -9999 -9999 -9999 -9999 -9999 -9999 -9999 1889 1915 1915 1939 1965 1943 1924 1901 1858 1837 1801 1768 1744 1745 1753 1767 1797 -9999 -9999 -9999 -9999 -9999 -9999 -9999 -9999 -9999 -9999 -9999 -9999 -9999 -9999 -9999 -9999 -9999 -9999 -9999 -9999 -9999 -9999 -9999 -9999 -9999 -9999 -9999 -9999 -9999 -9999 -9999 -9999 -9999 -9999 -9999 -9999 -9999 -9999 -9999 -9999 -9999 -9999 -9999 -9999 -9999 -9999 -9999 -9999 -9999 -9999 -9999 -9999 -9999 -9999 -9999 -9999 -9999 -9999 -9999 -9999 -9999 -9999 -9999 -9999 -9999 -9999 -9999 -9999 -9999 -9999 -9999 -9999 -9999 -9999 -9999 -9999 -9999 -9999 -9999 -9999
-9999 -9999 -9999 -9999 -9999 -9999 -9999 -9999 -9999 1925 1922 1914 1908 1872 1844 1821 1797 1787 1771 1742 1741 1741 1751 1725 1719 1725 1716 1704 1686 1691 1697 1711 1727 1739 1741 1754 1762 1767 1760 1772 1779 1779 1770 1772 1776 1778 1772 1755 1749 1753 1760 1766 1789 1798 1802 1798 1801 1824 1833 1813 1827 1806 1806 1795 1797 1808 1808 1804 1812 1822 1830 1848 1867 1862 1848 1856 -9999 -9999 -9999 -9999 -9999 -9999 -9999 -9999 -9999 -9999 -9999 -9999 1974 1950 1915 1885 1844 1819 1794 1783 1754 1779 1786 1834 -9999 -9999 -9999 -9999 -9999 -9999 -9999 -9999 -9999 -9999 -9999 -9999 -9999 -9999 -9999 -9999 -9999 -9999 -9999 -9999 -9999 -9999 -9999 -9999 -9999 -9999 -9999 -9999 -9999 -9999 -9999 -9999 -9999 -9999 -9999 -9999 -9999 -9999 -9999 -9999 -9999 -9999 -9999 -9999 -9999 -9999 -9999 -9999 -9999 -9999 -9999 -9999 -9999 -9999 -9999 -9999 -9999 -9999 -9999 -9999 -9999 -9999 -9999 -9999 -9999 -9999 -9999 -9999 -9999 -9999 -9999 -9999 -9999 -9999 -9999 -9999 -9999 -9999 -9999 -9999 -9999
-9999 -9999 -9999 -9999 -9999 -9999 -9999 -9999 -9999 -9999 1991 1966 1929 1883 1848 1817 1798 1794 1780 1763 1755 1753 1761 1743 1727 1720 1711 1703 1706 1718 1729 1736 1757 1777 1779 1784 1786 1789 1790 1803 1792 1786 1779 1792 1804 1811 1809 1787 1772 1779 1787 1798 1824 1855 1855 1837 1846 1860 1870 1861 1868 1845 1829 1827 1835 1856 1855 1844 1850 1864 1874 1896 -9999 -9999 -9999 -9999 -9999 -9999 -9999 -9999 -9999 -9999 -9999 -9999 -9999 -9999 -9999 -9999 1954 1939 1905 1875 1844 1819 1799 1783 1794 1837 -9999 -9999 -9999 -9999 -9999 -9999 -9999 -9999 -9999 -9999 -9999 -9999 -9999 -9999 -9999 -9999 -9999 -9999 -9999 -9999 -9999 -9999 -9999 -9999 -9999 -9999 -9999 -9999 -9999 -9999 -9999 -9999 -9999 -9999 -9999 -9999 -9999 -9999 -9999 -9999 -9999 -9999 -9999 -9999 -9999 -9999 -9999 -9999 -9999 -9999 -9999 -9999 -9999 -9999 -9999 -9999 -9999 -9999 -9999 -9999 -9999 -9999 -9999 -9999 -9999 -9999 -9999 -9999 -9999 -9999 -9999 -9999 -9999 -9999 -9999 -9999 -9999 -9999 -9999 -9999 -9999 -9999 -9999
-9999 -9999 -9999 -9999 -9999 -9999 -9999 -9999 -9999 -9999 -9999 2010 1956 1882 1848 1830 1815 1802 1787 1777 1777 1783 1774 1760 1747 1735 1733 1741 1735 1750 1764 1786 1802 1810 1841 1825 1817 1820 1822 1839 1820 1805 1810 1822 1838 1865 1834 1807 1799 1809 1818 1841 1871 1888 1889 1897 1905 1915 1918 1915 1917 1872 1859 1857 1870 1907 1892 1894 1899 1914 1922 -9999 -9999 -9999 -9999 -9999 -9999 -9999 -9999 -9999 -9999 -9999 -9999 -9999 -9999 -9999 -9999 -9999 1937 1913 1904 1872 1848 1820 1799 1795 1852 -9999 -9999 -9999 -9999 -9999 -9999 -9999 -9999 -9999 -9999 -9999 -9999 -9999 -9999 -9999 -9999 -9999 -9999 -9999 -9999 -9999 -9999 -9999 -9999 -9999 -9999 -9999 -9999 -9999 -9999 -9999 -9999 -9999 -9999 -9999 -9999 -9999 -9999 -9999 -9999 -9999 -9999 -9999 -9999 -9999 -9999 -9999 -9999 -9999 -9999 -9999 -9999 -9999 -9999 -9999 -9999 -9999 -9999 -9999 -9999 -9999 -9999 -9999 -9999 -9999 -9999 -9999 -9999 -9999 -9999 -9999 -9999 -9999 -9999 -9999 -9999 -9999 -9999 -9999 -9999 -9999 -9999 -9999 -9999
-9999 -9999 -9999 -9999 -9999 -9999 -9999 -9999 -9999 -9999 -9999 -9999 1997 1949 1900 1859 1839 1820 1802 1798 1811 1826 1808 1788 1774 1769 1766 1751 1761 1781 1803 1841 1861 1880 1867 1863 1868 1876 1875 1881 1848 1829 1842 1875 1891 1898 1859 1831 1826 1839 1854 1880 1916 -9999 -9999 -9999 -9999 -9999 -9999 -9999 1940 1924 1900 1906 1905 1941 -9999 -9999 -9999 -9999 -9999 -9999 -9999 -9999 -9999 -9999 -9999 -9999 -9999 -9999 -9999 -9999 -9999 -9999 -9999 -9999 -9999 -9999 -9999 -9999 1901 1877 1840 1834 1820 1826 -9999 -9999 -9999 -9999 -9999 -9999 -9999 -9999 -9999 -9999 -9999 -9999 -9999 -9999 -9999 -9999 -9999 -9999 -9999 -9999 -9999 -9999 -9999 -9999 -9999 -9999 -9999 -9999 -9999 -9999 -9999 -9999 -9999 -9999 -9999 -9999 -9999 -9999 -9999 -9999 -9999 -9999 -9999 -9999 -9999 -9999 -9999 -9999 -9999 -9999 -9999 -9999 -9999 -9999 -9999 -9999 -9999 -9999 -9999 -9999 -9999 -9999 -9999 -9999 -9999 -9999 -9999 -9999 -9999 -9999 -9999 -9999 -9999 -9999 -9999 -9999 -9999 -9999 -9999 -9999 -9999 -9999 -9999 -9999 -9999
-9999 -9999 -9999 -9999 -9999 -9999 -9999 -9999 -9999 -9999 -9999 -9999 2010 1944 1906 1881 1863 1843 1826 1828 1850 1873 1846 1820 1807 1798 1789 1791 1798 1812 1849 -9999 -9999 -9999 1901 1902 1927 1931 1915 1910 1881 1866 1884 -9999 -9999 -9999 -9999 1861 1857 1875 1900 1940 -9999 -9999 -9999 -9999 -9999 -9999 -9999 -9999 -9999 1964 1957 1949 -9999 -9999 -9999 -9999 -9999 -9999 -9999 -9999 -9999 -9999 -9999 -9999 -9999 -9999 -9999 -9999 -9999 -9999 -9999 -9999 -9999 -9999 -9999 -9999 -9999 -9999 -9999 1885 1846 1826 1829 1842 -9999 -9999 -9999 -9999 -9999 -9999 -9999 -9999 -9999 -9999 -9999 -9999 -9999 -9999 -9999 -9999 -9999 -9999 -9999 -9999 -9999 -9999 -9999 -9999 -9999 -9999 -9999 -9999 -9999 -9999 -9999 -9999 -9999 -9999 -9999 -9999 -9999 -9999 -9999 -9999 -9999 -9999 -9999 -9999 -9999 -9999 -9999 -9999 -9999 -9999 -9999 -9999 -9999 -9999 -9999 -9999 -9999 -9999 -9999 -9999 -9999 -9999 -9999 -9999 -9999 -9999 -9999 -9999 -9999 -9999 -9999 -9999 -9999 -9999 -9999 -9999 -9999 -9999 -9999 -9999 -9999 -9999 -9999 -9999 -9999
-9999 -9999 -9999 -9999 -9999 -9999 -9999 -9999 -9999 -9999 -9999 -9999 -9999 1979 1940 1909 1888 1867 1852 1866 1901 1922 1888 1871 1845 1833 1828 1836 1840 1856 -9999 -9999 -9999 -9999 -9999 -9999 -9999 -9999 -9999 -9999 -9999 -9999 -9999 -9999 -9999 -9999 -9999 -9999 -9999 1923 -9999 -9999 -9999 -9999 -9999 -9999 -9999 -9999 -9999 -9999 -9999 -9999 -9999 -9999 -9999 -9999 -9999 -9999 -9999 -9999 -9999 -9999 -9999 -9999 -9999 -9999 -9999 -9999 -9999 -9999 -9999 -9999 -9999 -9999 -9999 -9999 -9999 -9999 -9999 -9999 -9999 -9999 -9999 1855 -9999 -9999 -9999 -9999 -9999 -9999 -9999 -9999 -9999 -9999 -9999 -9999 -9999 -9999 -9999 -9999 -9999 -9999 -9999 -9999 -9999 -9999 -9999 -9999 -9999 -9999 -9999 -9999 -9999 -9999 -9999 -9999 -9999 -9999 -9999 -9999 -9999 -9999 -9999 -9999 -9999 -9999 -9999 -9999 -9999 -9999 -9999 -9999 -9999 -9999 -9999 -9999 -9999 -9999 -9999 -9999 -9999 -9999 -9999 -9999 -9999 -9999 -9999 -9999 -9999 -9999 -9999 -9999 -9999 -9999 -9999 -9999 -9999 -9999 -9999 -9999 -9999 -9999 -9999 -9999 -9999 -9999 -9999 -9999 -9999 -9999 -9999
