1.171413390807635579e+01,1.207717737213144993e+01,1.259974189278255352e+01,1.327799762249883386e+01,1.410744140701534377e+01,1.467092624104207133e+01,1.494294469418668747e+01,1.492674521081719519e+01,1.462213794730153005e+01,1.467652071573623118e+01,1.471423318894438559e+01,1.473530107286516255e+01,1.473973866680967326e+01,1.411269720613598544e+01,1.337046327675390600e+01,1.250886039069222022e+01,1.152235054377431389e+01,1.067014605042804831e+01,9.870967331846266291e+00,9.126556537424452387e+00,8.438801379903653199e+00,7.342041345210598813e+00,6.078073634407576087e+00,4.618011065900254231e+00,2.902756558513805984e+00,7.907508794456554746e-01,1.030258551455684124e+00,1.057994309770294405e+00,8.777831654418938312e-01,1.474497716416413473e+00,2.158379253437458622e+00,2.925890230234044154e+00,3.773471884436636170e+00,4.070498515410412743e+00,4.265533476375121147e+00,4.361514083536723874e+00,4.359780245690251910e+00,5.087049856415553961e+00,5.757221195097203648e+00,6.376047807518289368e+00,6.947625627952098704e+00,7.290206601696777255e+00,7.580974617145057159e+00,7.821208016691275411e+00,8.011885308325899402e+00,8.514992033325272658e+00,9.100233211185519977e+00,9.764811667512447002e+00,1.050596556966047856e+01,1.135689329841965645e+01,1.202583441850148738e+01,1.103215837495725893e+01,9.894296513390415271e+00,8.706917024433124652e+00,7.556870587261892425e+00,6.443601221647035970e+00,5.366025167609323354e+00,3.833690180692066907e+00,2.776069855032818889e+00,2.271533861030160750e+00,2.379943714640039509e+00,2.149486576555289741e+00,1.988598548920490261e+00,1.900389521406298909e+00,1.886793575285096169e+00,1.981943748311437270e+00,1.762539223644418840e+00,1.201892734771098592e+00,1.357200134115796319e-01,7.021056787594484594e-02,1.617382249755627832e-01,3.709925318999238164e-01,6.686997494826413257e-01,1.136217668144902104e+00,1.588765575783577466e+00,2.037255313175434956e+00,2.961990421646796712e+00,3.381162605076072136e+00,3.975294582691600631e+00,4.730743270774832254e+00,5.635059786633194179e+00,6.981832080270237384e+00,8.030220248279690054e+00,8.808331959050381244e+00,9.332163231102907019e+00,9.445004026517720419e+00,9.751899047816378285e+00,1.024925116260095947e+01,1.093170620954170325e+01,1.153839366927052978e+01,1.181559208791619042e+01,1.176806763644198384e+01,1.139502070329002947e+01,1.098948790543264309e+01,1.083111768225140814e+01,1.092203790636345317e+01,1.126101910962881902e+01,1.127777119582709453e+01,1.137615139507819606e+01,1.155573840046645806e+01
1.230325390312181177e+01,1.280658568000767339e+01,1.333675630562318482e+01,1.389325851667458878e+01,1.447560143335845595e+01,1.486415875301099554e+01,1.503112994189121032e+01,1.497801185226791887e+01,1.470433221692127290e+01,1.482226335462310018e+01,1.489880107071869020e+01,1.493407362373473468e+01,1.492813964839008278e+01,1.418856837958804817e+01,1.333075323883546304e+01,1.234960306165163679e+01,1.123832495238810480e+01,1.028797617209054494e+01,9.480180312538989185e+00,8.821186636755337318e+00,8.316965888340124735e+00,7.318784745416840209e+00,6.112792905581827085e+00,4.667337992484864806e+00,2.916495493770970171e+00,5.621395190276777809e-01,5.769914331863492674e-01,4.938633027183013113e-01,3.011652280616790578e-01,1.394705744971043160e+00,2.259101112554717794e+00,3.003213539349856021e+00,3.656923547696822041e+00,3.634665406905126517e+00,3.668990598494738631e+00,3.759584280076911256e+00,3.905644425921778851e+00,4.658446670194476447e+00,5.410209242919302497e+00,6.163635564839337277e+00,6.920592095441654656e+00,7.262662597086160687e+00,7.545737008603111029e+00,7.771226621009872382e+00,7.940176008814675335e+00,8.683260824189339644e+00,9.424901190248087701e+00,1.016594799567749519e+01,1.090709426619902267e+01,1.178349625599700268e+01,1.253695304985262382e+01,1.172429526362648389e+01,1.082050094477933833e+01,9.692509131629989838e+00,8.578947257619185862e+00,7.478140600108667435e+00,6.387690455684131408e+00,4.984958871971376659e+00,4.034722892727818255e+00,3.588718679699128611e+00,3.680108900867349764e+00,3.653484823266835324e+00,3.635137081238538403e+00,3.625090605352724982e+00,3.623359160333218476e+00,3.449733582931076459e+00,3.080281003997188183e+00,2.499724354703728668e+00,1.672624729514674558e+00,1.475573073124349266e+00,1.366394280640567116e+00,1.348992601846467965e+00,1.424048588045876862e+00,1.539780243211265498e+00,1.728740213466450237e+00,1.986487424569230553e+00,3.017895070485737463e+00,3.723621724978470660e+00,4.377481484753863228e+00,4.987049688215230425e+00,5.557328991879908031e+00,6.816263442123958072e+00,7.926479225059964051e+00,8.905130530326999860e+00,9.763326640834947057e+00,1.014183263500460086e+01,1.054389856742516862e+01,1.096907756599707184e+01,1.141693310624277835e+01,1.184933595331719047e+01,1.205140095847326975e+01,1.202548987585901052e+01,1.177130468374334704e+01,1.144940505733728919e+01,1.130096334219712517e+01,1.132732669295502426e+01,1.152825314734330142e+01,1.151817193103659598e+01,1.165929414874221415e+01,1.195053073879618566e+01
1.270415429070693847e+01,1.332564988349076529e+01,1.384405752028877146e+01,1.426184346059025465e+01,1.458085405705013926e+01,1.484970348493244430e+01,1.496521484155047865e+01,1.492810490604972173e+01,1.473814470545192989e+01,1.480963721541593259e+01,1.481517146492586789e+01,1.475476227816994523e+01,1.462824719636084758e+01,1.397746326654607429e+01,1.320909320014090582e+01,1.231864715493746765e+01,1.130014275287069658e+01,1.017810481342967499e+01,9.285485720984231861e+00,8.633918567764004237e+00,8.233455490642770158e+00,7.311526463039387025e+00,6.139629419274561961e+00,4.682521351544865595e+00,2.864342977611439522e+00,4.793127746369010289e-01,4.720916252505760746e-01,5.038384226001862976e-01,5.731432908575089247e-01,1.778091057021593535e+00,2.581745307906155862e+00,3.102399713845404250e+00,3.374841977273989713e+00,3.204725063159863385e+00,3.253490960857460923e+00,3.519242608317961540e+00,3.992564287634434717e+00,4.597767857151422000e+00,5.270531068366096861e+00,6.007462683928356029e+00,6.805654661870486066e+00,7.261245864227342750e+00,7.648418714327695156e+00,7.969453058963378744e+00,8.226056459484096806e+00,9.085266151486429465e+00,9.863969485338039078e+00,1.056690569095777654e+01,1.119768769923593332e+01,1.202126557212555191e+01,1.278180028165289706e+01,1.207402025416503299e+01,1.132249976573796602e+01,1.039865116194747863e+01,9.471606687422106319e+00,8.539842555423518888e+00,7.601391713403237382e+00,6.329547031348749186e+00,5.482712820657048347e+00,5.095013801148764010e+00,5.185778420054703908e+00,5.123723822668262429e+00,5.015359637934691861e+00,4.860076562506858266e+00,4.656950088795122511e+00,4.355942288447602451e+00,3.950832704875580692e+00,3.434551598853882837e+00,2.795283211833696768e+00,2.506382041382822834e+00,2.292730368208475866e+00,2.158123296308717798e+00,2.105347117648301847e+00,1.953078059586995874e+00,1.924344030442545650e+00,2.020207001581027395e+00,3.163004769687741469e+00,4.245253088977966272e+00,5.049260024091624111e+00,5.607843883642458671e+00,5.937466359948545325e+00,6.858625796019583554e+00,7.797759390829153148e+00,8.755929235443266734e+00,9.733853093421556579e+00,1.037883791261645250e+01,1.087872026380678392e+01,1.123775196102601548e+01,1.145873318125948792e+01,1.181147943113262500e+01,1.202973920745138336e+01,1.211500381404495030e+01,1.206784008220605564e+01,1.192373352943663178e+01,1.188086848875177104e+01,1.193946276389751837e+01,1.209921904310948726e+01,1.195196652507920199e+01,1.202423978185215425e+01,1.231525512889148288e+01
1.292052183630657503e+01,1.363950770699669057e+01,1.412690200824761533e+01,1.438767992530582163e+01,1.442435303311443739e+01,1.462743812702569457e+01,1.474478976124446206e+01,1.477682064454931421e+01,1.472364220273979463e+01,1.463856077500449082e+01,1.446242659155918098e+01,1.419456918073435858e+01,1.383393454477214313e+01,1.347674855882918088e+01,1.300502775910907793e+01,1.241618479121428109e+01,1.170668820586446124e+01,1.034226221421174152e+01,9.289296790169181861e+00,8.566256842053476817e+00,8.188500953925631265e+00,7.320276011649742287e+00,6.158603965588929974e+00,4.663627932166418688e+00,2.745568780247664709e+00,5.545155890028701240e-01,7.469292321817808666e-01,1.083679888205236086e+00,1.542964377473032167e+00,2.571815512786393310e+00,3.110762120410906384e+00,3.223044709341424063e+00,2.918464798003130856e+00,2.779999720938390428e+00,3.031264089102756909e+00,3.654134322302487803e+00,4.613970615313061074e+00,4.907785845143518344e+00,5.341376912122231424e+00,5.908380811342975214e+00,6.601913244536206093e+00,7.285959455002871010e+00,7.887920502721500249e+00,8.412250687943778615e+00,8.862257292631692707e+00,9.714962450086026990e+00,1.041451560868692283e+01,1.096778384395647699e+01,1.137951909556566754e+01,1.207248833069928828e+01,1.276350269741217147e+01,1.208747461260504608e+01,1.141212273706737435e+01,1.083766850749641364e+01,1.024379260578954742e+01,9.629517128942659099e+00,8.993683867182001634e+00,7.852990643771314616e+00,7.108010036938177123e+00,6.781277233937219151e+00,6.884243400219466125e+00,6.593221408172734499e+00,6.203728240473736832e+00,5.711817851255378997e+00,5.111647471403924392e+00,4.791298179633666443e+00,4.452470615630494066e+00,4.094028775546192378e+00,3.714534887995967871e+00,3.367052829058452268e+00,3.087828561452617748e+00,2.880127634744621634e+00,2.746802107515522895e+00,2.378384633028880479e+00,2.172494685917880197e+00,2.137587082212251577e+00,3.394928811995851170e+00,4.934076730147971546e+00,5.971015188816922503e+00,6.570384507441914046e+00,6.758641301213963892e+00,7.108161575993319659e+00,7.643808083704135115e+00,8.358170850049239320e+00,9.242881563945834600e+00,1.016254530190536620e+01,1.076513797247905657e+01,1.106196629822877497e+01,1.105810098596745128e+01,1.142414156710002615e+01,1.175032512056268885e+01,1.203736200194919803e+01,1.228584289691782949e+01,1.241225008834954835e+01,1.256781921028713356e+01,1.275233726214833752e+01,1.296555873757943189e+01,1.257504283090639063e+01,1.246954951236514475e+01,1.265050250291481326e+01
1.234359845685309409e+01,1.289706840120426357e+01,1.330933197764838383e+01,1.358311357196719626e+01,1.372012365380146548e+01,1.388987752059840908e+01,1.397635506508169279e+01,1.397986748164209381e+01,1.390042732257775349e+01,1.384490234743821624e+01,1.366967461646580162e+01,1.337381627573506826e+01,1.295570107802969595e+01,1.284177419428354305e+01,1.265504296050960420e+01,1.239485593647252060e+01,1.206027012549357735e+01,1.068568457101060609e+01,9.457906758135965930e+00,8.385043940284884201e+00,7.476091768264101489e+00,6.497900912798138862e+00,5.265626644028570169e+00,3.733039392147456503e+00,1.781866485752503060e+00,-4.012581751594276880e-01,6.565800819720661874e-01,1.479929633694422542e+00,2.379572423838185014e+00,3.071813025350085269e+00,3.439222654985739869e+00,3.505330376277776327e+00,3.273751435262092890e+00,3.000601408726777830e+00,3.090798312735917985e+00,3.538366651781176042e+00,4.317986046537687805e+00,4.580174987674811682e+00,4.979939541276192649e+00,5.511058829787879532e+00,6.166691107964808793e+00,7.199198388489190137e+00,8.084921777231066642e+00,8.835795572655479546e+00,9.459848876530273287e+00,1.000144970787514609e+01,1.049934125809116026e+01,1.095497008377157222e+01,1.136953366252427777e+01,1.198972481157634462e+01,1.258796578443253189e+01,1.184692748876063284e+01,1.106715335103428366e+01,1.070571434483595752e+01,1.037613901707029562e+01,1.007897805067369035e+01,9.814760248644672558e+00,9.145637807940211417e+00,8.701188404021694467e+00,8.487957300177539466e+00,8.509336941533266696e+00,8.054219341077679672e+00,7.511172561502628575e+00,6.875961019561019683e+00,6.142675751649087523e+00,5.588610343575238559e+00,5.001923861675898308e+00,4.379136926068461833e+00,3.715336727890577340e+00,3.556223355722357482e+00,3.546901617818777108e+00,3.687601780403058971e+00,3.974974722832750995e+00,3.573932106804389441e+00,3.256279262441515776e+00,3.026307430662793951e+00,4.141511319575783112e+00,5.616689932461095047e+00,6.599129666178045639e+00,7.141280505920235555e+00,7.264926904195808000e+00,7.493453112885709366e+00,7.910918267915578284e+00,8.511541611259314521e+00,9.288031263649550340e+00,1.016963221214880164e+01,1.077363927796651666e+01,1.110998584015209545e+01,1.118368931478610051e+01,1.153439329896690957e+01,1.192914483423544070e+01,1.236713558002967694e+01,1.284753140533959836e+01,1.290994776706003222e+01,1.296141038771435383e+01,1.300194552653653268e+01,1.303157371057518787e+01,1.276263557264397086e+01,1.271722485421418192e+01,1.289581504474726437e+01
1.210289235433663357e+01,1.248227704908401314e+01,1.281289757013354702e+01,1.309555083264206310e+01,1.333088372251541109e+01,1.347070085384167193e+01,1.353007132962812520e+01,1.350920808364204717e+01,1.340803651825551235e+01,1.338521711949783821e+01,1.321407007737134087e+01,1.289343317519477772e+01,1.242103904427213834e+01,1.235437948677532738e+01,1.225550899261491899e+01,1.212427061938887007e+01,1.196045180479515935e+01,1.075383651842936317e+01,9.539172432377238664e+00,8.312928113874116676e+00,7.070166335758766962e+00,6.024740338998020306e+00,4.771925748746133955e+00,3.265934462277649164e+00,1.382106843440322308e+00,-6.480684312371779443e-01,5.010357186653081607e-01,1.458359917722218180e+00,2.490376448508746510e+00,2.938498998046843891e+00,3.185423032373170482e+00,3.241332628825188689e+00,3.108287897739092198e+00,2.788757946561573497e+00,2.816152821585895083e+00,3.188581508441077794e+00,3.883417407625895823e+00,4.143658132096162738e+00,4.539034678371018927e+00,5.062955240188086847e+00,5.708296722462291584e+00,6.933929390074064614e+00,7.950321188234634739e+00,8.777403668500333822e+00,9.427577404471445988e+00,9.793728167700008314e+00,1.022008075463254073e+01,1.070524130999164925e+01,1.124776367067619276e+01,1.190525421351286894e+01,1.251839899271470458e+01,1.183284914953633482e+01,1.107222891365298700e+01,1.079837661734493359e+01,1.060468553896136257e+01,1.049201700748512955e+01,1.046088752009815792e+01,1.015354452123025553e+01,9.900435656740404156e+00,9.702360283011106645e+00,9.559974675379802278e+00,9.054287992809870289e+00,8.471479552830645687e+00,7.807958018369441255e+00,7.058901943757758701e+00,6.422140943211469555e+00,5.744291741799863793e+00,5.021062395852419868e+00,4.246350083514816021e+00,4.013655297438379677e+00,4.001867315007727299e+00,4.211363891313860464e+00,4.635749572062286106e+00,4.194046356895016814e+00,3.767326758159394995e+00,3.355774953235656444e+00,4.370487632414477908e+00,5.838838890317013863e+00,6.804577424967259702e+00,7.318181189409194154e+00,7.400217814229751667e+00,7.583564214708863105e+00,7.958229767681422651e+00,8.518964189372340456e+00,9.258800124762597505e+00,1.008752837037330430e+01,1.067802796014933442e+01,1.103872158256280400e+01,1.117426866566054144e+01,1.143499641724426041e+01,1.182463673356179257e+01,1.234070776606513498e+01,1.298017448407938979e+01,1.306180398707466850e+01,1.309243400806077773e+01,1.307213636416692992e+01,1.300086350451561756e+01,1.283481275217746997e+01,1.283111120350775813e+01,1.298978674639528386e+01
1.220232043093297314e+01,1.240145618276856787e+01,1.264478886784404565e+01,1.293182174722621980e+01,1.326199419382241729e+01,1.337567375845733508e+01,1.341211220105064150e+01,1.337143598158371915e+01,1.325350388480778463e+01,1.326616015534366078e+01,1.310235672293830334e+01,1.276075823432421252e+01,1.223846009853661876e+01,1.201789144756097905e+01,1.180539333522608736e+01,1.160104171555875396e+01,1.140491234663652698e+01,1.054778296084381672e+01,9.533544480996431147e+00,8.350470982773973816e+00,6.980715861672829980e+00,5.916074187816962926e+00,4.699998317207885634e+00,3.297015675766935772e+00,1.619492550423405230e+00,-5.330332206989379928e-01,2.646637297604976791e-01,1.014460192176448894e+00,1.899357948838282573e+00,2.152053752801923014e+00,2.318013036325506260e+00,2.401263169459275648e+00,2.403591417085522153e+00,2.122691329072461386e+00,2.186067501378636369e+00,2.588211758109390193e+00,3.300057028129174785e+00,3.590598788496432991e+00,4.013410264636524616e+00,4.560856682520274319e+00,5.225173485112588168e+00,6.485956537947188849e+00,7.480667921395572684e+00,8.235087385751846512e+00,8.764095513544203797e+00,9.085320709150472851e+00,9.570630372929658236e+00,1.021522942164754078e+01,1.101347788086553692e+01,1.181906860156921191e+01,1.255515314928224591e+01,1.204539938997842086e+01,1.142725492394262687e+01,1.111451212323677140e+01,1.092820637788295812e+01,1.086960943521292222e+01,1.093913078137718031e+01,1.089617752915521187e+01,1.073931035256220667e+01,1.046752194531548064e+01,1.007898960343622008e+01,9.628130503507996707e+00,9.111860410082476491e+00,8.527709987075510867e+00,7.872484099441783734e+00,7.291466936127218190e+00,6.666519676193308541e+00,5.994361668547172783e+00,5.270577799163151944e+00,4.722147163004239090e+00,4.454048255409637669e+00,4.475796809612022642e+00,4.786578394351405308e+00,4.299834600134697205e+00,3.761100010322455223e+00,3.164297796717990163e+00,4.099722673671338136e+00,5.611712403936540028e+00,6.595398471969591725e+00,7.107041042073812598e+00,7.168734289229170997e+00,7.380657322653475738e+00,7.786541095393292089e+00,8.380515691828613001e+00,9.155046608103704742e+00,9.915795710871945445e+00,1.047774113591084699e+01,1.084770856879896250e+01,1.102977025662209876e+01,1.112484597543864240e+01,1.143527764979225481e+01,1.195761295199813645e+01,1.268646412413032465e+01,1.287027952389641605e+01,1.296249134843471396e+01,1.296349357495283350e+01,1.287329045239886760e+01,1.279196672755998421e+01,1.281192830252317272e+01,1.293308091766289714e+01
1.264024532408431511e+01,1.265588881851384784e+01,1.280757356431853466e+01,1.309434000456925240e+01,1.351443798118911843e+01,1.360615558220138333e+01,1.362418087143363898e+01,1.356857255870548506e+01,1.343914898494115917e+01,1.348953322099799657e+01,1.333626245430574819e+01,1.297791920947214983e+01,1.241104726958865356e+01,1.183477227849853364e+01,1.130344127368413076e+01,1.081812697934502232e+01,1.037990399114456253e+01,1.006425799474641813e+01,9.440991960242147485e+00,8.497378899013712683e+00,7.210101282060506378e+00,6.175758096282208953e+00,5.053507913286984454e+00,3.823690615190786346e+00,2.447161423067271802e+00,3.114029550626143394e-01,-3.112013505116418832e-01,-2.554508742836288926e-01,4.083393523081630949e-01,4.989025393159031707e-01,6.371316891255770498e-01,8.178342656511508046e-01,1.036783276992109482e+00,8.901531394939509179e-01,1.123301311104009992e+00,1.695595350523757761e+00,2.549200957368679799e+00,2.908219121937942298e+00,3.395073007168611934e+00,4.000304980253264198e+00,4.715337711097855156e+00,5.847326491611537058e+00,6.662824028187094072e+00,7.188844380874195750e+00,7.439141066340233976e+00,7.851589374651866571e+00,8.535248523330494663e+00,9.477798388785270589e+00,1.066522019772174446e+01,1.173115975253722354e+01,1.269804238991144452e+01,1.248220721600381466e+01,1.212583613765737844e+01,1.165037012325394095e+01,1.134505847146580315e+01,1.121257627179430472e+01,1.125413187669177795e+01,1.138532188693668523e+01,1.123628268367301075e+01,1.080475155033239609e+01,1.008378903198111054e+01,9.791982518092247290e+00,9.446884408749189888e+00,9.047258064831655844e+00,8.591542465755178881e+00,8.196122797650177816e+00,7.756426873861584248e+00,7.270738907112440863e+00,6.736894416425150744e+00,5.661588957079091600e+00,4.904428267351835125e+00,4.490722290226717206e+00,4.437867928855396826e+00,3.899540508530958682e+00,3.237038151375960293e+00,2.430887828431631092e+00,3.307824882147546663e+00,4.923859100450223458e+00,5.963401477823310870e+00,6.500714230686035044e+00,6.563145916333242624e+00,6.879780168245345884e+00,7.392903571163539134e+00,8.094733421150809960e+00,8.976260472295003012e+00,9.653492636504296343e+00,1.017156369115806136e+01,1.053566797183760961e+01,1.074912315166498900e+01,1.060035562438703138e+01,1.075512338568570847e+01,1.121084644426823651e+01,1.196035565213664142e+01,1.233226028456090617e+01,1.256999448685366794e+01,1.267511063927215353e+01,1.264827510575716296e+01,1.263386516125269132e+01,1.265955588510886010e+01,1.272529853982326387e+01
1.284139226045349602e+01,1.302156383937171569e+01,1.319862101335950300e+01,1.337259407148370904e+01,1.354351191217787864e+01,1.343372397584692912e+01,1.328687028151751726e+01,1.310270228535233095e+01,1.288089983018801021e+01,1.286993911869879170e+01,1.269768206140117606e+01,1.236280401908533655e+01,1.186261511615307285e+01,1.130344534794934397e+01,1.079027908201566888e+01,1.032423552474790007e+01,9.906430516727120050e+00,9.548731937475432474e+00,9.001918247865239309e+00,8.258761836120340760e+00,7.307720818947883501e+00,6.398319738535125367e+00,5.292330991205186130e+00,3.957799534444832457e+00,2.324582092183285376e+00,3.326332890516059404e-01,-4.976587692687576281e-01,-6.832953857223886818e-01,-6.251229349804666713e-01,-9.755752413164257009e-01,-1.122249914392727144e+00,-1.146242618511994937e+00,-1.055949270507751336e+00,-6.099888144071599072e-01,6.091620138411037999e-01,1.522659425792830312e+00,2.457476302330305451e+00,2.643406954549721632e+00,2.949679138854702121e+00,3.369327072756939323e+00,3.894877652100463106e+00,4.786899691328352802e+00,5.451668966334088928e+00,5.908643549471072731e+00,6.168343231188289089e+00,6.749307065639034597e+00,7.628247085255497772e+00,8.786383580822818118e+00,1.020473101492859413e+01,1.141440003837129957e+01,1.256904766588329814e+01,1.267936884367157724e+01,1.268593684815589917e+01,1.246273574764346925e+01,1.228369068111619100e+01,1.214917989998998138e+01,1.205949535129579431e+01,1.175608886990316293e+01,1.131837354149311281e+01,1.074312884236624832e+01,1.002568456138729225e+01,9.772749710734236928e+00,9.429592236323594889e+00,8.994172048035634859e+00,8.463655404607035138e+00,8.267564835139245005e+00,8.003128215356840158e+00,7.668946200761555865e+00,7.263099743498881544e+00,6.370944300385057879e+00,5.675277026509498057e+00,5.188505555791646628e+00,4.921322234121985773e+00,3.907660162339039012e+00,2.818317150533178772e+00,1.612300694650971256e+00,2.434590946599307415e+00,4.074823444777915249e+00,5.137775263472621035e+00,5.716158331420828631e+00,5.842935825219247370e+00,6.146638134306797063e+00,6.600058755574933045e+00,7.197361543146476137e+00,7.932009315018729190e+00,8.728686351062236781e+00,9.420284862113501134e+00,1.001218625072364610e+01,1.050834699501825575e+01,1.038222191382424242e+01,1.042629781030375291e+01,1.064014691764970699e+01,1.102174648318450245e+01,1.167438159767172756e+01,1.219697650630414465e+01,1.259308826624952182e+01,1.286519969184748646e+01,1.267620588471803167e+01,1.254861151181553147e+01,1.248278723777078447e+01
1.248733914907076326e+01,1.284970596554311051e+01,1.306959499532807101e+01,1.314846926633438429e+01,1.308684069924757054e+01,1.286971639789820188e+01,1.265204478565872748e+01,1.243381004262178102e+01,1.221499562908593006e+01,1.214779452101361024e+01,1.196217115139065790e+01,1.165701248935014611e+01,1.123040531140098963e+01,1.069308119068530338e+01,1.020298744011011038e+01,9.761295575256976775e+00,9.369165567891062807e+00,8.904929138996305227e+00,8.370857067316105571e+00,7.763954217485992793e+00,7.080257596383919605e+00,6.369097939897526928e+00,5.354446694150833075e+00,3.995615872665738255e+00,2.194454255928866004e+00,4.024969963587785582e-01,-5.608733062293790317e-01,-8.654622351589187357e-01,-9.837787088973927174e-01,-1.422764483621305587e+00,-1.621564585711292361e+00,-1.668370263885182281e+00,-1.576775720007142612e+00,-1.103505829074025835e+00,-2.056159162868907431e-01,1.033323226905939141e+00,1.803648581405616902e+00,1.936348099320132743e+00,2.179360597588100301e+00,2.525813232962472732e+00,2.968197632180038514e+00,3.706003846575718796e+00,4.305550791773042896e+00,4.781256824928827420e+00,5.141664298319823523e+00,5.781323892851195190e+00,6.749386541605877810e+00,8.020687714176659711e+00,9.571339754293976654e+00,1.081367622127591410e+01,1.204869757221784710e+01,1.238298130376258932e+01,1.264686197632728515e+01,1.270502698633579008e+01,1.268253177758285588e+01,1.257929019895503053e+01,1.239490261330335841e+01,1.184943016859020126e+01,1.131332272696281471e+01,1.078665765147775524e+01,1.026951466653791201e+01,1.008643159061045047e+01,9.777362362084391023e+00,9.339863670232130488e+00,8.770174513547759787e+00,8.657742809376948401e+00,8.451403133610259744e+00,8.149757305195164392e+00,7.750622680203160364e+00,7.003865106499503668e+00,6.333780154955398700e+00,5.744012281744456772e+00,5.238471488266453591e+00,3.907428238871164083e+00,2.551401348230939448e+00,1.108119107748507082e+00,2.025633257337117854e+00,3.627923525436592023e+00,4.673856214189432201e+00,5.262790024846827563e+00,5.429517741652410301e+00,5.763862502517341113e+00,6.197097954209775494e+00,6.725398076474593090e+00,7.344780820998803250e+00,8.107817626482050954e+00,8.826959312951393244e+00,9.505219584165102376e+00,1.014496988914230613e+01,1.014648982625944029e+01,1.018366932452437368e+01,1.025643045573711021e+01,1.036462244848612535e+01,1.109378130638497773e+01,1.169962792404930063e+01,1.218633696439067648e+01,1.255693492891138874e+01,1.227449358450941652e+01,1.207515796786255713e+01,1.195973671051132392e+01
1.156838357869479417e+01,1.213589609837249483e+01,1.241734306521036579e+01,1.241671248281582507e+01,1.213399563695131000e+01,1.190355044054204292e+01,1.171044354374992302e+01,1.155503422552522608e+01,1.143762086982930271e+01,1.131906341287339934e+01,1.112574201684097730e+01,1.085686735673241188e+01,1.051129112551908307e+01,1.000067818931548835e+01,9.538717819617255955e+00,9.126640420086024719e+00,8.765652431855054161e+00,8.126779910430126819e+00,7.538547589983035202e+00,7.002745345829468171e+00,6.521265155668941382e+00,6.087383181863375015e+00,5.241114320112784775e+00,3.937696123099294176e+00,2.056440772804168926e+00,5.163684435436837195e-01,-5.455182174703394615e-01,-9.548047120655470676e-01,-1.178878912399129009e+00,-1.668354313009185130e+00,-1.878264275901657010e+00,-1.903461903815108380e+00,-1.751935415812330366e+00,-1.291216444421915188e+00,-7.950563890091719710e-01,6.279180183389937442e-02,4.043762213907369785e-01,6.516805767338766930e-01,9.911679746347878961e-01,1.410584524066183842e+00,1.902096153886532415e+00,2.588147357167772000e+00,3.223288362746906888e+00,3.818809214435439081e+00,4.381296996337496807e+00,4.956811789846303995e+00,5.898621206747284518e+00,7.175430493046457414e+00,8.757747612050165387e+00,9.919167226712852781e+00,1.112657039397619840e+01,1.158578619867927628e+01,1.200746867363303316e+01,1.238399000705756592e+01,1.255217394229247496e+01,1.251372188753825476e+01,1.226824922670025408e+01,1.166667882174745330e+01,1.122110679095978902e+01,1.093508476279005137e+01,1.081105253051670090e+01,1.072694288463062939e+01,1.048258348981960175e+01,1.007570079031525445e+01,9.502241724713206494e+00,9.358263862761438290e+00,9.095054508708592778e+00,8.710502922082760335e+00,8.201274698463141277e+00,7.565516931652594756e+00,6.888476254060117654e+00,6.166753667191906096e+00,5.395763190679696564e+00,3.898844440326477478e+00,2.444931477951863830e+00,9.791396857520112684e-01,2.127272372510087717e+00,3.609624783361840450e+00,4.591277335566871898e+00,5.156398854877777715e+00,5.335933628342164781e+00,5.744529137989273337e+00,6.198273300739746361e+00,6.695565335888655767e+00,7.234899111364732072e+00,7.803838636332561585e+00,8.397415535072981996e+00,9.015068592773792133e+00,9.656281105510700513e+00,9.892894783620109322e+00,1.002843692129127007e+01,1.006373849562420375e+01,9.999011971291990264e+00,1.059260986766660118e+01,1.107463981951844900e+01,1.144821428684981335e+01,1.171554987513601276e+01,1.141979660561643861e+01,1.123045308105111495e+01,1.114857776421272995e+01
1.005619060700405676e+01,1.086026989987195890e+01,1.122480333218246962e+01,1.115869013826831235e+01,1.066036434976041569e+01,1.051448133042225841e+01,1.044626548403919131e+01,1.045601891868807520e+01,1.054369818363901956e+01,1.037840725345287751e+01,1.018314456410218760e+01,9.957554562051001312e+00,9.701207706558619748e+00,9.222337730394313482e+00,8.793777652716102011e+00,8.416824208985101308e+00,8.092731380301758648e+00,7.205504770907341872e+00,6.490088348088028702e+00,5.956218918301075860e+00,5.612720083939205296e+00,5.545943788776724226e+00,4.950011372322226322e+00,3.783183189353980236e+00,1.910131230556985305e+00,6.692918294686214242e-01,-4.435065168451443052e-01,-9.771254050726541074e-01,-1.287083334480399133e+00,-1.796994453279152415e+00,-1.988632651808901919e+00,-1.957803817053839435e+00,-1.692393852448735414e+00,-1.311728145744190943e+00,-1.103557999661204381e+00,-1.164399219616070624e+00,-1.461022443501918344e+00,-1.274580396028470952e+00,-1.005023560420277517e+00,-5.395721393804476795e-01,5.912367614009127470e-01,1.394379995387177384e+00,2.200817269485943140e+00,3.036800939022759049e+00,3.910290712198971619e+00,4.286327033739126158e+00,5.075735927137502657e+00,6.243273676494740521e+00,7.752842103498064574e+00,8.713771867292440021e+00,9.781502345204403426e+00,1.026618182056425610e+01,1.074785989086836580e+01,1.149062230324292422e+01,1.188923795253036708e+01,1.195087981763653318e+01,1.167661013974775486e+01,1.120520299365475836e+01,1.104129361437690449e+01,1.118756273653257338e+01,1.164161422276618119e+01,1.168299376263081868e+01,1.153140752404801717e+01,1.118531770512999657e+01,1.064104291237160993e+01,1.035585506479880458e+01,9.926285017879525441e+00,9.348452535404778274e+00,8.616518154434851695e+00,8.059679658831349514e+00,7.345149754045284141e+00,6.462695512257488062e+00,5.396084515056792874e+00,3.881897718048368251e+00,2.502880723382499006e+00,1.248895802852772574e+00,2.726557715933838999e+00,4.021144067469546002e+00,4.893942853249497738e+00,5.401091821444293117e+00,5.565417786564057501e+00,6.089344803707668952e+00,6.603540529957243166e+00,7.108999511406999261e+00,7.606533572465066229e+00,7.823859780385219231e+00,8.136407151478367794e+00,8.542052748503019544e+00,9.038282718373190860e+00,9.621136808331289814e+00,9.961399836890787896e+00,1.006422204633793882e+01,9.931084760984601800e+00,1.017292063839636995e+01,1.031739102321324353e+01,1.036532561112043638e+01,1.031699418560095260e+01,1.009075711524052288e+01,9.996849405541761158e+00,1.003600836870764823e+01
9.108588731128904215e+00,9.807727058464621450e+00,1.012353599716325014e+01,1.006345988109683098e+01,9.626122568211698649e+00,9.519411209096571014e+00,9.571494228778711033e+00,9.781857955032386087e+00,1.014848594904150758e+01,9.913098216038438437e+00,9.609286015172916251e+00,9.235705374276555801e+00,8.790571608457533159e+00,8.165927098340732826e+00,7.612387511213575486e+00,7.132558170481355653e+00,6.729033550049820178e+00,6.044600319049142634e+00,5.493585216879904642e+00,5.082967680418465584e+00,4.818958404231137749e+00,4.808045355520540021e+00,4.306292991672751924e+00,3.276191332090168995e+00,1.589160980972232684e+00,2.743770066646682437e-01,-9.951160292587878375e-01,-1.475149892801895568e+00,-1.829095227889189212e+00,-2.060779823574905301e+00,-2.126467081904525269e+00,-2.042237904896829992e+00,-1.787018105832997916e+00,-1.788038173032105105e+00,-1.849827716120489463e+00,-1.966667212290283073e+00,-2.129514625901931524e+00,-2.016276112333748483e+00,-1.860038613726660461e+00,-1.648622270894624320e+00,-1.356467693597733337e+00,-7.892362044053390369e-01,6.108657616748743857e-01,1.547901894765165487e+00,2.347429976173915023e+00,2.886619217042747820e+00,3.812310319507267398e+00,5.076790575107060555e+00,6.641901917417019519e+00,7.518679574300985990e+00,8.552113677484170395e+00,9.174311946190986333e+00,9.817932091863943000e+00,1.073463354635209299e+01,1.132169643935203496e+01,1.158995391672812580e+01,1.154395403648360130e+01,1.140803692607635966e+01,1.148987338766116295e+01,1.178854260219722683e+01,1.230079724862293489e+01,1.235393298586099142e+01,1.224953608625074253e+01,1.198679485376023912e+01,1.156359859685940350e+01,1.140955605857903343e+01,1.105267306454682696e+01,1.048893989980185815e+01,9.711411005301542332e+00,8.654408166415402448e+00,7.474299411196079213e+00,6.155144366296005920e+00,4.670277838077362631e+00,3.397340394285885079e+00,2.142030196884533666e+00,8.507672147541107677e-01,2.354575971544385915e+00,3.479904483642086710e+00,4.298886447610099637e+00,4.856588168955981111e+00,5.173565757121024511e+00,5.958373950066722102e+00,6.662808514810486749e+00,7.293538007727379480e+00,7.855309907793559532e+00,7.706182809368905318e+00,7.714513596968055609e+00,7.880201459306654499e+00,8.201287599110367310e+00,8.815457569190206399e+00,9.165055544909789020e+00,9.256381934275033530e+00,9.090996383751964061e+00,9.078167915403298593e+00,9.015800243952655890e+00,8.903686875106012977e+00,8.741448791285368003e+00,8.732961109142731715e+00,8.799361798050060912e+00,8.940313592735950721e+00
7.923772101055580386e+00,8.537049034939728998e+00,8.822751442776876729e+00,8.787486364305955533e+00,8.430464075249533451e+00,8.267752131529817916e+00,8.349863884829307636e+00,8.675378025867624743e+00,9.238933677172084913e+00,9.039269626116787748e+00,8.731920972664996228e+00,8.314550820912655738e+00,7.783682761384904225e+00,7.111277200549730004e+00,6.533858154468406454e+00,6.055676580686401245e+00,5.680882727433531620e+00,5.160546466997400827e+00,4.730215204437969945e+00,4.394149235610818494e+00,4.156272873489463393e+00,4.182174171210486513e+00,3.758100897621085235e+00,2.850716190613683310e+00,1.340313333319232303e+00,1.146662028247833615e-01,-1.173488905204909338e+00,-1.688845111849777592e+00,-2.085906922877922121e+00,-2.217079931077158950e+00,-2.252701318053945467e+00,-2.197422834513350409e+00,-2.043882353909150851e+00,-2.250704403988901259e+00,-2.399037378788913877e+00,-2.499316940424974653e+00,-2.557202531232450671e+00,-2.484378762468544277e+00,-2.374261411013945722e+00,-2.221311104509509082e+00,-2.015801369422763667e+00,-1.619333289122463215e+00,-1.179446532880891185e+00,-6.082899217975218376e-01,5.054665373213904633e-01,1.278061411206380615e+00,2.366880199769138660e+00,3.727727944518147041e+00,5.334504969078438741e+00,6.171127052661692147e+00,7.215750758939740273e+00,8.036250821912757303e+00,8.899416631171858327e+00,9.953935907534622984e+00,1.069269525603577975e+01,1.112985542507774461e+01,1.127281908219898554e+01,1.139908075913121266e+01,1.165202071701603082e+01,1.203001128839263423e+01,1.253075398281002606e+01,1.258535590898770096e+01,1.251612661602039367e+01,1.232265279281520520e+01,1.200375277403227159e+01,1.195733591638985160e+01,1.164862628814818990e+01,1.107338159984714743e+01,1.022300052505062062e+01,8.929056367085697943e+00,7.552733098843948056e+00,6.078441818856759937e+00,4.479536463161701398e+00,3.361045490208752540e+00,2.134291636483201859e+00,6.963476169673442628e-01,2.036254270061391036e+00,2.954125406785631291e+00,3.691454791087164011e+00,4.278034193355884085e+00,4.729090304363545272e+00,5.638472755121058277e+00,6.398970205585714943e+00,7.023641775385416786e+00,7.520850862345350052e+00,7.153465037531289816e+00,7.005312628814277964e+00,7.079103299361058532e+00,7.373472799355746510e+00,7.994081753543746061e+00,8.327277556340430209e+00,8.380260424632014704e+00,8.154116916364451129e+00,7.972921030464378944e+00,7.790710180342082403e+00,7.607454485883483386e+00,7.423122171141166348e+00,7.527427191926740591e+00,7.644858615015629688e+00,7.775299672788975158e+00
6.476440393554748098e+00,7.024557862066699521e+00,7.300621497429531814e+00,7.311065619795487081e+00,7.056123066021461554e+00,6.731829458109845454e+00,6.746669188350431057e+00,7.100207525876354175e+00,7.782632166056187017e+00,7.731610570414692241e+00,7.531248519736891467e+00,7.179122470517535604e+00,6.670612649967576857e+00,6.055131624691640901e+00,5.563858892884145924e+00,5.202630539405412868e+00,4.976462562253206379e+00,4.576751260529576371e+00,4.218688672673130746e+00,3.903967532827864240e+00,3.634335905348473172e+00,3.676033804560244977e+00,3.311839471196695417e+00,2.512442189133984094e+00,1.170025806266945745e+00,2.671672818367659130e-01,-1.164971642289132303e+00,-1.727184377533195647e+00,-2.161674934990528207e+00,-2.288029476145596597e+00,-2.369190316892211268e+00,-2.409728230817837602e+00,-2.411692569533902653e+00,-2.706732374299800181e+00,-2.866774067678293125e+00,-2.914145033630856751e+00,-2.854460248777438203e+00,-2.818662911497438639e+00,-2.746305366638434275e+00,-2.634376773807820982e+00,-2.477519741052395474e+00,-2.123156983887807936e+00,-1.804696509610371091e+00,-1.544508273855850877e+00,-1.376053969457428083e+00,-9.713100790009092655e-01,5.737329100480220712e-01,2.129463957174626110e+00,3.790036229041894522e+00,4.641790943827889926e+00,5.753914567263938018e+00,6.844745230505064448e+00,7.991540421109156078e+00,9.146646153577266958e+00,9.999742019409980642e+00,1.056800588769308646e+01,1.086117600263031235e+01,1.117823353818442556e+01,1.153017526357756495e+01,1.191641271822176762e+01,1.233634166908932883e+01,1.238224811686197491e+01,1.233712480573841574e+01,1.220077112840412425e+01,1.197257118442103163e+01,1.201381086976482493e+01,1.173135465441696823e+01,1.112044198776934500e+01,1.016985864949369933e+01,8.889746131901702597e+00,7.580770151135554968e+00,6.234290851400738021e+00,4.836479813764380964e+00,3.775699091762775073e+00,2.480364619041258933e+00,8.109974285633654301e-01,1.775339752628793732e+00,2.443014076373005494e+00,3.068037507137500786e+00,3.661124680227135997e+00,4.228446409004948947e+00,5.122974910491116418e+00,5.803766091550982331e+00,6.288412259595354215e+00,6.586836779650335316e+00,6.144477904092712883e+00,5.990026616956711791e+00,6.127776421309116373e+00,6.553887487727558359e+00,7.154749137084871258e+00,7.444312061346696652e+00,7.430168755800101721e+00,7.111963711980812342e+00,6.853181042969085368e+00,6.644764404673802360e+00,6.487620041652201408e+00,6.382471828798652602e+00,6.483893551878844086e+00,6.533303106308086861e+00,6.530938461790217531e+00
4.720387446770218709e+00,5.228533206141444900e+00,5.519670494974984187e+00,5.601059325799625732e+00,5.474579147902500331e+00,4.860498209070785336e+00,4.692831455047227429e+00,4.980546535205069958e+00,5.708616142990812214e+00,5.939572490321984866e+00,5.971418164676204121e+00,5.804804196159972562e+00,5.436236750477950963e+00,4.992663380252113647e+00,4.709178947861881959e+00,4.591239119337483743e+00,4.641317691036957349e+00,4.313601460130853660e+00,3.975328244631688435e+00,3.625592668615140735e+00,3.263247305007238364e+00,3.297773033931815867e+00,2.974289145699231973e+00,2.267266582717698320e+00,1.084266563978655729e+00,6.572378349043355161e-01,-9.646263845573775919e-01,-1.602801108297900123e+00,-2.076314488138967906e+00,-2.281604669970544119e+00,-2.477309193117614328e+00,-2.665540237639778542e+00,-2.847780123279611608e+00,-3.158998259585272361e+00,-3.287993645095233841e+00,-3.256493244107536711e+00,-3.059543776489713540e+00,-3.063256058658357706e+00,-3.029021525434507645e+00,-2.955521829080661966e+00,-2.839709725092913306e+00,-2.505904949765322520e+00,-2.245881571819937861e+00,-2.087396602213730912e+00,-2.054088907067424863e+00,-1.813558900060502355e+00,-1.383288426407907279e+00,-3.045557388618254646e-01,1.909487276877174011e+00,2.870089610907202715e+00,4.133912471708842240e+00,5.589002946296774077e+00,7.093267169423568497e+00,8.310417367933972344e+00,9.239684901710026210e+00,9.900922495289151470e+00,1.030573290945858744e+01,1.074295006613728454e+01,1.112251076763708113e+01,1.144568097491951164e+01,1.171346695666072080e+01,1.174024511709910890e+01,1.170856988889794792e+01,1.161834612015534596e+01,1.146929972824942467e+01,1.158040324569480717e+01,1.130309244241346889e+01,1.063152789164061041e+01,9.550154898027345851e+00,8.535626956844414082e+00,7.558522995477220618e+00,6.619276300451056194e+00,5.718267076537853377e+00,4.613527135395781187e+00,3.152923746100030122e+00,1.175140470910008172e+00,1.575899905609801088e+00,1.945176630151259412e+00,2.422997001716607812e+00,2.999451437788766661e+00,3.666616568787258057e+00,4.399149917839597634e+00,4.855379383005477223e+00,5.052563980930946386e+00,4.997069362175706964e+00,4.628643802324013734e+00,4.632625212244482427e+00,5.008830275091399997e+00,5.741235348133410632e+00,6.294486793716522754e+00,6.511120956547824967e+00,6.398165829106118530e+00,5.952024034207936687e+00,5.713176519040413126e+00,5.581030494218804705e+00,5.557066536517852207e+00,5.641561026117815736e+00,5.613611357509962652e+00,5.464319786966131076e+00,5.191662455713122348e+00
2.698427178470359955e+00,3.369857316093667787e+00,3.744630368432355194e+00,3.842657693352625081e+00,3.668403526720148911e+00,3.034430703971207510e+00,2.772023611556837963e+00,2.900121260550625912e+00,3.409076353982736229e+00,3.834520810575178462e+00,4.090146389576900354e+00,4.182755708433487207e+00,4.114584496803406211e+00,3.772984878825257127e+00,3.543058442332934543e+00,3.428882072035331241e+00,3.432689513883402377e+00,3.091036738165172437e+00,2.764535358314412328e+00,2.453562198591906718e+00,2.158536031506204100e+00,2.321492023404006400e+00,2.303310220663878471e+00,2.103090886217373168e+00,1.709702862909681098e+00,1.654956933111098039e+00,1.833790538707642803e-01,-1.343115496336678483e+00,-1.993327628528609230e+00,-2.392541007859332769e+00,-2.722311834682189513e+00,-3.005585265392075822e+00,-3.254525412585110633e+00,-3.506460663711438830e+00,-3.607075774230525500e+00,-3.569190864302091537e+00,-3.388163180911742511e+00,-3.396099304410658881e+00,-3.391851355175227400e+00,-3.375373332098594581e+00,-3.346484578140708877e+00,-3.108589477417571079e+00,-2.886419758428789617e+00,-2.683883469889146056e+00,-2.505745979423991354e+00,-2.399833447831728694e+00,-2.212841162881832524e+00,-1.921238979886782161e+00,-1.463789668773643360e+00,-2.533105902331135306e-01,2.096079607730006789e+00,4.177268588276431771e+00,6.075434665643266285e+00,7.412183163347272341e+00,8.445525642128199451e+00,9.201843010414474833e+00,9.696232495741430313e+00,1.008917800650521102e+01,1.048028761347095994e+01,1.086969236289001195e+01,1.125751130258098698e+01,1.160412392967967321e+01,1.177287858064074122e+01,1.176532922114092550e+01,1.158140736583770192e+01,1.158714665599697824e+01,1.126563689914063104e+01,1.061116201435765305e+01,9.610894429810793227e+00,8.816001058339095309e+00,8.041171773696223823e+00,7.286465679931777295e+00,6.551899065939121414e+00,5.244445462611683872e+00,3.667227344096532615e+00,1.701890328994293711e+00,2.134884989065198191e+00,2.351646308744501201e+00,2.570408375802753387e+00,2.791337765615269362e+00,3.014564953919278256e+00,3.494203249385619436e+00,3.708411215522174675e+00,3.667062576583688394e+00,3.368355115826245694e+00,2.917727741775238304e+00,2.890790924400049366e+00,3.289720778248570454e+00,4.085711019168238423e+00,4.974239194672724018e+00,5.443890158834433279e+00,5.518549982895559758e+00,5.201581895748222273e+00,4.821811594538514711e+00,4.626717211817989117e+00,4.620775615808436321e+00,4.804129220564473002e+00,4.563469469691038505e+00,4.153414344348169251e+00,3.563194243092039581e+00
-3.013097311883200513e-01,1.064172827578436564e+00,1.590426521087944245e+00,1.716209387670271980e+00,1.462627545059661305e+00,8.747845883445849458e-01,5.937557470278829186e-01,6.786618864970851428e-01,1.107938644280853202e+00,1.687198550245964768e+00,2.104767402731475112e+00,2.385654914431878382e+00,2.540915267562443347e+00,2.344721728075026324e+00,2.208947267887974686e+00,2.135684491128154949e+00,2.126176837589038193e+00,1.807655861512245998e+00,1.535746329453050008e+00,1.314009446984226281e+00,1.146423338914414281e+00,1.263799743117321128e+00,1.401852147176757102e+00,1.559567127481526372e+00,1.736005808032095032e+00,2.004576723935259874e+00,4.958228748030190092e-01,-1.344566975302721845e+00,-2.100623702813366300e+00,-2.585755599550167982e+00,-2.965569889776484835e+00,-3.276894595871664428e+00,-3.537857018664981368e+00,-3.771617454948137382e+00,-3.872511768296867718e+00,-3.850997246415772235e+00,-3.704942025913746662e+00,-3.705081316986588380e+00,-3.714108819905765024e+00,-3.731960034249834468e+00,-3.758509236238718465e+00,-3.616459144759891942e+00,-3.448157136841444981e+00,-3.249526790594468029e+00,-3.014579060671526811e+00,-2.938935113114171660e+00,-2.818913174632582397e+00,-2.648486846126377969e+00,-2.417017348522202624e+00,-1.837511250691910458e+00,-8.093062773060194504e-01,2.434816939088491949e+00,4.641082467828890223e+00,6.184860132030080671e+00,7.392020072335160563e+00,8.304431488354017787e+00,8.944532785495200145e+00,9.345359689489379562e+00,9.800786545828868768e+00,1.030944213750979088e+01,1.086994240859184835e+01,1.148854680779129822e+01,1.180773620157812687e+01,1.183250977676447668e+01,1.156324318123606076e+01,1.148845146498172376e+01,1.114702839406548307e+01,1.053397859295761485e+01,9.639432700806624510e+00,8.930551355435133232e+00,8.218138800881536810e+00,7.501201777785953873e+00,6.778495706517887243e+00,5.269609724859665612e+00,3.557750657039770115e+00,1.521272498705779075e+00,2.035881773999225430e+00,2.264244620851500578e+00,2.378647077237251661e+00,2.382558665629341377e+00,2.276091399259277726e+00,2.608589830089896200e+00,2.678377839182679576e+00,2.489855536767152877e+00,2.030451222807694744e+00,1.419806256623629803e+00,1.303322104956684768e+00,1.702307410422564393e+00,2.553742833896922360e+00,3.624411419166042592e+00,4.174333121012847592e+00,4.251717019002134279e+00,3.862123468716266217e+00,3.275272685766964287e+00,2.961693677142757775e+00,2.937090293330975488e+00,3.202832385161081152e+00,2.853421022066062740e+00,2.264311314681760390e+00,1.389588058789873903e+00
-1.988379514515291158e+00,-1.657518202998423895e+00,-1.452662203249140305e+00,-1.429068138395305443e+00,-1.594801365548409677e+00,-1.713866472184442769e+00,-1.756287316528974074e+00,-1.727718714583730275e+00,-1.624419508638356158e+00,-1.439032555789068191e+00,-1.259566842336910408e+00,-1.088953874655009812e+00,-9.320678242786630818e-01,-9.398610873468755678e-01,-9.458652867059443858e-01,-9.501143406532527314e-01,-9.526317350727886435e-01,-1.102588090602044213e+00,-1.182954776268756003e+00,-1.207705153647444796e+00,-1.180343045002626656e+00,-1.260719098819230055e+00,-1.210515917638749661e+00,-1.010454415633733838e+00,-5.063799598901473908e-01,6.415688604703901898e-01,-9.638380454082403626e-01,-1.724403110136773387e+00,-2.355137822372927570e+00,-2.750533348206495976e+00,-3.057720413470470078e+00,-3.301414158273004773e+00,-3.494921694697939785e+00,-3.712366457750320592e+00,-3.806966123515060474e+00,-3.787935677774266097e+00,-3.653499913332606930e+00,-3.608270205072285020e+00,-3.596818361361576954e+00,-3.619465011872270654e+00,-3.675579929131139512e+00,-3.622468317038915586e+00,-3.504221402917883310e+00,-3.313873958614405701e+00,-3.037903162823921921e+00,-2.926505543885220995e+00,-2.791579438432616467e+00,-2.629505431590144049e+00,-2.434868345401423717e+00,-1.892250829635847564e+00,-1.080851338625395508e+00,1.679258511725208569e+00,3.556385711076529788e+00,5.026408038271919843e+00,6.169013132162838531e+00,7.031942000307680907e+00,7.639409864690938079e+00,7.889473158729971125e+00,8.281432524880615986e+00,8.811399497622760535e+00,9.474686468487764301e+00,1.021998058173627300e+01,1.055898757145305034e+01,1.049983517739636874e+01,1.004114724224577238e+01,9.887095649203990533e+00,9.544876558132131095e+00,9.010349684916402424e+00,8.276353437042729411e+00,7.575750910647570890e+00,6.868047880392982307e+00,6.151681201757909889e+00,5.424602763229783520e+00,3.838607590226460697e+00,2.116006003425210835e+00,-2.973666100881559027e-01,9.993214589634785705e-01,1.635035041640281239e+00,1.988360413653289083e+00,2.096695091335718075e+00,1.968367019481651825e+00,2.433963510975928557e+00,2.638073157418454162e+00,2.594089387652183998e+00,2.299338529070958259e+00,1.728140912502452275e+00,1.655215484737629916e+00,2.091666724187591253e+00,2.980940537768577148e+00,4.055646527677048141e+00,4.569390896873319008e+00,4.565637254084603747e+00,4.044111416431181105e+00,3.365397695547251988e+00,3.034269381566573553e+00,3.071145694870988763e+00,3.473545191486128836e+00,3.296794538079029113e+00,2.852358204136597131e+00,2.112372617937858355e+00
-2.728979294042265913e+00,-2.494844367289091647e+00,-2.374610144231111164e+00,-2.385561306607947518e+00,-2.525992210695283902e+00,-2.504606668015839421e+00,-2.466126019232603994e+00,-2.409731435719174364e+00,-2.334124827454785667e+00,-2.292888990322918374e+00,-2.249597646150088170e+00,-2.204129681529814810e+00,-2.156347414554108166e+00,-2.087943603387336644e+00,-2.037657496795422851e+00,-2.006851494808633785e+00,-1.996427568140973996e+00,-2.028006541810671415e+00,-2.016644096115843166e+00,-1.961594164232069781e+00,-1.858979638908976773e+00,-2.067316777519478066e+00,-2.116721298638630788e+00,-2.018894868577566282e+00,-1.749308709573233367e+00,-1.320427993790260990e+00,-1.703591205645262896e+00,-2.179904460897257756e+00,-2.700520593302080830e+00,-2.952027555052379348e+00,-3.135615251626890920e+00,-3.262768829719409069e+00,-3.339939965874938910e+00,-3.569821147855769983e+00,-3.682083978039689676e+00,-3.687486563585495869e+00,-3.586511847678639953e+00,-3.480303552262022926e+00,-3.433349119907163516e+00,-3.448070086784515542e+00,-3.523693552016164521e+00,-3.594350610702242044e+00,-3.557172279968916939e+00,-3.408631866114519404e+00,-3.132929303478111382e+00,-2.930279249721815304e+00,-2.717416369114245889e+00,-2.491724652912368665e+00,-2.249345804840572338e+00,-1.772369780543011641e+00,-1.161969255086770403e+00,8.627443860979012724e-01,2.195844622171984728e+00,3.680773668493084738e+00,4.822643589286384369e+00,5.691030171528788095e+00,6.316787788576453622e+00,6.456873542424765411e+00,6.832540522894301027e+00,7.436259871440418223e+00,8.257561712064866555e+00,9.077423761559103355e+00,9.379656771888463140e+00,9.174740037748454924e+00,8.455654034339891822e+00,8.237625085171883299e+00,7.914216914140102865e+00,7.482758539779857720e+00,6.939291308826572191e+00,6.097405268357202424e+00,5.235774964446149760e+00,4.349063898124022387e+00,3.428923689695080324e+00,1.664364474798647908e+00,-7.031778478271425437e-01,-1.620126891492554400e+00,-1.057186469942553275e+00,4.461557883412085035e-01,1.307075249694290564e+00,1.692530217795008562e+00,1.695100942360404650e+00,2.427853310710862633e+00,2.888873765457341314e+00,3.109522520834769210e+00,3.100923866584647026e+00,2.546496392834511013e+00,2.473806374017010423e+00,2.890425387271098767e+00,3.757647609513368625e+00,4.624295769705752512e+00,4.906934929949872348e+00,4.627795475697041638e+00,3.764942790389983696e+00,2.938345180753545449e+00,2.539654399604746260e+00,2.603487234416857365e+00,3.123654365052710435e+00,3.256392260157009222e+00,3.082133622763379321e+00,2.589795910082299812e+00
-3.275812212687361669e+00,-3.127812649857904415e+00,-3.054175796855330471e+00,-3.060274355225192977e+00,-3.145644602631924691e+00,-3.154829403933021137e+00,-3.139315069562966354e+00,-3.098730640159227168e+00,-3.032069588705021079e+00,-2.984154094364521725e+00,-2.938610932896703165e+00,-2.895552047336106938e+00,-2.855089839320193335e+00,-2.741896088813648102e+00,-2.628867552529047025e+00,-2.516026496532749235e+00,-2.403399327909526928e+00,-2.369630140350682979e+00,-2.319472332159027150e+00,-2.251831037661234713e+00,-2.165068213620094273e+00,-2.380423105307139853e+00,-2.479073643003737448e+00,-2.475014398159192552e+00,-2.367717168763734836e+00,-2.013520736768021013e+00,-2.179692076365775666e+00,-2.442328749185147974e+00,-2.774166950882454685e+00,-3.013415595009290904e+00,-3.172973098402740000e+00,-3.264545370521800383e+00,-3.293807542536249855e+00,-3.420878028866646048e+00,-3.468463670167088342e+00,-3.439864729306642666e+00,-3.333120739241127950e+00,-3.264141766056497751e+00,-3.255020357902995709e+00,-3.306251963584272868e+00,-3.415121523158462402e+00,-3.448829797676537634e+00,-3.395152490474555584e+00,-3.249762360333777522e+00,-2.999351908086369534e+00,-2.793879130937089617e+00,-2.569057224588858990e+00,-2.319266078594830915e+00,-2.035333132096820652e+00,-1.804994340188395663e+00,-1.561537156125927917e+00,-1.089983434163276810e+00,-5.339299065993167170e-01,1.794859616024355731e+00,3.128226879441911468e+00,4.109041892567327103e+00,4.808016183073913652e+00,4.803103571037850017e+00,5.109783955438039982e+00,5.717251236729183894e+00,6.607529955653121512e+00,7.269339547691438419e+00,7.419169646663310580e+00,7.063532321992717300e+00,6.186448324468844184e+00,6.183371121807646809e+00,6.085221204328657763e+00,5.891068520906800110e+00,5.598973782243068520e+00,4.836094497812065462e+00,4.033742599159134024e+00,3.182654421422631774e+00,2.266358519216145062e+00,6.163591872880090916e-01,-1.221168398006787337e+00,-1.866273741349476323e+00,-1.475591125951295490e+00,-8.651277822371549187e-01,4.246900445691021986e-01,1.116583635355541837e+00,1.481366839919583400e+00,2.069158611614561494e+00,2.515850071534231791e+00,2.840698658618522554e+00,3.053333127334764807e+00,2.740610374138594096e+00,2.782390695615434062e+00,3.175695474530987994e+00,3.896147901892359044e+00,4.721513063341111760e+00,5.068170471028113688e+00,4.957605274815863439e+00,4.383352343249785399e+00,3.792352774140293370e+00,3.473644863809108863e+00,3.440963278589213914e+00,3.695857968434313801e+00,3.723307450985220424e+00,3.518316274071337624e+00,3.072384983560640492e+00
-3.695988879721969766e+00,-3.606415462679347428e+00,-3.563642757179937171e+00,-3.569353643598999426e+00,-3.623318877254661174e+00,-3.651253674867427801e+00,-3.647948178679183417e+00,-3.613316652959939201e+00,-3.546441506484975914e+00,-3.494580394670383505e+00,-3.448165635613034574e+00,-3.407419801894610689e+00,-3.372548369108620658e+00,-3.259463761629250556e+00,-3.137554590979326097e+00,-3.005747310733327904e+00,-2.862675019486121464e+00,-2.782412839670100446e+00,-2.704394798363320085e+00,-2.628820707532280476e+00,-2.555907367485927395e+00,-2.705224140586215409e+00,-2.777785475283863548e+00,-2.779608957898854538e+00,-2.710837340603656553e+00,-2.398960958006834510e+00,-2.485463280029647226e+00,-2.634998095461298817e+00,-2.837617912645727269e+00,-3.065597657379226515e+00,-3.201963207520420962e+00,-3.258237801991174631e+00,-3.238599168306945053e+00,-3.284195389618039140e+00,-3.287377307723391429e+00,-3.248269568770019156e+00,-3.165305078720912935e+00,-3.112756218215248172e+00,-3.118434773336542953e+00,-3.182029026568890195e+00,-3.300192592130786640e+00,-3.304028899566085364e+00,-3.242420014473388790e+00,-3.111480819228061634e+00,-2.901841309180676731e+00,-2.719886476389762997e+00,-2.513493289143815979e+00,-2.276023109293192181e+00,-1.996416911079667900e+00,-1.918029439019944382e+00,-1.837061179762412344e+00,-1.613629046636616104e+00,-1.439438661339335512e+00,1.913384896027491289e-01,1.739427191207318701e+00,2.735143814627440939e+00,3.399966931130652181e+00,3.225466012918625669e+00,3.453975260905826516e+00,4.070444252323502710e+00,5.042391979962596693e+00,5.637128032951279621e+00,5.721471781669403178e+00,5.300213805458831473e+00,4.347605897147205134e+00,4.444110874343170536e+00,4.454729613410663980e+00,4.379586461072577208e+00,4.217787345285457512e+00,3.544858824872899827e+00,2.809220056159443590e+00,1.993766928441223607e+00,1.058583075094109871e+00,-7.499510255118388979e-01,-1.511454528232315742e+00,-2.023734046995200320e+00,-1.719451090472980281e+00,-1.288410296203643890e+00,-7.147116935822179773e-01,5.528493857725464977e-01,1.280645233038961717e+00,1.730359565513996056e+00,2.176720325869483830e+00,2.623811810177061332e+00,3.073970565917675923e+00,2.997463839436848687e+00,3.145837012064878646e+00,3.512971028741499246e+00,4.085934701135198743e+00,4.810737126709288880e+00,5.163679537970804923e+00,5.161268251683485353e+00,4.803399332060972249e+00,4.448670034643576798e+00,4.220930793879458243e+00,4.124082596086590335e+00,4.159919177123261314e+00,4.094974720511753041e+00,3.866622896199237491e+00,3.468851489515750952e+00
-4.029329029258076567e+00,-3.986641439547685017e+00,-3.969061985557510219e+00,-3.976923642598446662e+00,-4.010076783442078074e+00,-4.050823256130411387e+00,-4.054436824981617171e+00,-4.021017601948695841e+00,-3.949625655001959945e+00,-3.895906742935504319e+00,-3.850185148354801079e+00,-3.812748588031254826e+00,-3.783842981205438161e+00,-3.698356127456402742e+00,-3.598883254865704817e+00,-3.484226688433604835e+00,-3.352829081270774836e+00,-3.239264292788534227e+00,-3.141377307438403932e+00,-3.060672725999543875e+00,-2.998538244295106292e+00,-3.037971219449678184e+00,-3.031726754491071762e+00,-2.979517671298088644e+00,-2.878844290552448282e+00,-2.616442976394420583e+00,-2.679856992782233771e+00,-2.772493316602389068e+00,-2.891544728211364657e+00,-3.109037315929152001e+00,-3.222811397462798322e+00,-3.243798965807751955e+00,-3.173841255122555438e+00,-3.161363888276033762e+00,-3.144450733837915291e+00,-3.123029724967735454e+00,-3.097007324917153248e+00,-3.035852801315871208e+00,-3.029244112768409547e+00,-3.077532674244813915e+00,-3.178217209406009935e+00,-3.160046882584885974e+00,-3.100347719115609912e+00,-2.996638728314982014e+00,-2.844109591061862563e+00,-2.713411509490710305e+00,-2.556781609212330331e+00,-2.369082079219566594e+00,-2.142161320362068633e+00,-2.098521317853873747e+00,-2.039450664873157404e+00,-1.846499986041415298e+00,-1.670560922602757126e+00,-9.293897357614665511e-01,6.949743818976835685e-01,1.585882346228551398e+00,2.084931815216795492e+00,1.695635218842133085e+00,1.833075053064493476e+00,2.476675055109155199e+00,3.556865759625874812e+00,4.191626171250114830e+00,4.311229969388330474e+00,3.924997280871644012e+00,3.000269142886959006e+00,3.055796737197779223e+00,3.035820791330430701e+00,2.940038929048413685e+00,2.766938506787105290e+00,2.193249511418458031e+00,1.523896447302489410e+00,7.129090809506232196e-01,-6.391465081876146481e-01,-1.234057229504379016e+00,-1.695342646648557494e+00,-2.112433807362574356e+00,-1.858782364037578905e+00,-1.534605700476602275e+00,-1.107683982316077786e+00,-2.663068213360499925e-01,1.093413910082032370e+00,1.411878273805599271e+00,1.873374991470539541e+00,2.461153362515905219e+00,3.162564722707989606e+00,3.314118814455589757e+00,3.561102886576042792e+00,3.899738485303800850e+00,4.325641400094043298e+00,4.892062330129005154e+00,5.194205389405270878e+00,5.241895695516340936e+00,5.036567494375017162e+00,4.928783716629092204e+00,4.807651610000420739e+00,4.672957864588551224e+00,4.524451165999148650e+00,4.377315057620820404e+00,4.132475991046900887e+00,3.786309785426021257e+00
-4.296093752907609087e+00,-4.294699571193490328e+00,-4.299965096519619223e+00,-4.311865931033117327e+00,-4.330347368810136821e+00,-4.380125058767459834e+00,-4.387265123775839548e+00,-4.351977428954849181e+00,-4.273211012568945755e+00,-4.219379966703598051e+00,-4.175843925831967063e+00,-4.142927458501386440e+00,-4.120885051043125635e+00,-4.084017171635250243e+00,-4.029153784738429778e+00,-3.955546168671522089e+00,-3.862122741766687017e+00,-3.724000919250652686e+00,-3.611572010423486745e+00,-3.527293678183792025e+00,-3.473215766925905612e+00,-3.376315832155292629e+00,-3.251404470230166766e+00,-3.095092091575530446e+00,-2.902309541962146966e+00,-2.706759366741473993e+00,-2.786283349542194365e+00,-2.862775297094941607e+00,-2.936472162749985682e+00,-3.144096953495237212e+00,-3.235675052766028958e+00,-3.221119517333812521e+00,-3.098935195603021775e+00,-3.054055225287306996e+00,-3.045062034485717550e+00,-3.072270784099594199e+00,-3.134738944473943523e+00,-3.039091038546497536e+00,-2.991690309494874356e+00,-2.994828534667273168e+00,-3.048349631024793283e+00,-3.017000988770360159e+00,-2.970465573117930358e+00,-2.908014397743154511e+00,-2.828593469456028853e+00,-2.774926904343965273e+00,-2.694161478293090273e+00,-2.583757197464302102e+00,-2.439693603189241777e+00,-2.330851549484032503e+00,-2.189085196776574538e+00,-1.898777075292152450e+00,-1.562514497298548966e+00,-9.930035053385050103e-01,6.707032463442288983e-02,6.839608751485446447e-01,8.290231273091884789e-01,-5.173967694574958115e-02,2.416318012522362599e-02,8.655978171560139156e-01,2.135772544277363405e+00,2.947113145677740853e+00,3.222046394245605683e+00,2.992231402104223559e+00,2.231732105985339665e+00,2.072312222104948809e+00,1.845981053094533308e+00,1.547262169425543288e+00,1.165995384357000564e+00,6.800540079243921898e-01,-2.376270748926354037e-01,-9.250839363947755967e-01,-1.329796715008889629e+00,-1.523781938641399325e+00,-1.805637824200787556e+00,-2.140936470382264201e+00,-1.916519930491576096e+00,-1.683296400909159551e+00,-1.338138620339319518e+00,-7.378571852066635461e-01,9.202317006947083877e-01,1.114105413923883070e+00,1.608042777362730158e+00,2.354715571805038099e+00,3.317992153518144249e+00,3.687590712818404448e+00,4.025460496217188933e+00,4.333650617873198385e+00,4.613719818886996116e+00,4.965571455029840209e+00,5.159979347716827647e+00,5.200646181995179695e+00,5.088307925338982685e+00,5.244302087201897500e+00,5.247811907263469244e+00,5.098899674492450629e+00,4.794839434475238527e+00,4.574083524376193921e+00,4.319334709732395972e+00,4.029258783368830699e+00
-4.654204856074543706e+00,-4.683449624081842622e+00,-4.704845047212076636e+00,-4.718497902214094708e+00,-4.724475313310544600e+00,-4.725257313442299711e+00,-4.683140666103246197e+00,-4.596946426367268579e+00,-4.464122144765136468e+00,-4.434448237382804692e+00,-4.414245782842600718e+00,-4.403645138669914694e+00,-4.402715661724011298e+00,-4.387950045186555847e+00,-4.368566029237595849e+00,-4.344501796093311441e+00,-4.315679055768689487e+00,-4.187581275046056817e+00,-4.070852744685395486e+00,-3.966497335658917489e+00,-3.875514684496291551e+00,-3.664116126727519074e+00,-3.433376283262419726e+00,-3.179086536525698392e+00,-2.895047927564406542e+00,-2.777151332184726318e+00,-2.880916447673077307e+00,-2.946229208554752788e+00,-2.975622696925656285e+00,-3.030416065161664285e+00,-3.014621454433314529e+00,-2.927096409597452986e+00,-2.761027736303260038e+00,-2.784138162310259013e+00,-2.830962047868700981e+00,-2.900351114875178826e+00,-2.990735148100983842e+00,-2.820209448146610232e+00,-2.699102920450820786e+00,-2.634240394762566329e+00,-2.629786869321064202e+00,-2.689492523314116479e+00,-2.722425803210991813e+00,-2.729555942114563205e+00,-2.711086533918509733e+00,-2.732278185521167302e+00,-2.738663699481473923e+00,-2.730346959956266417e+00,-2.707192470388732897e+00,-2.480333582958485383e+00,-2.236021636439381677e+00,-1.862004407386789850e+00,-1.434320892512189971e+00,-1.162013651473020825e+00,-9.452915887952988427e-01,-8.289618854986026131e-01,-8.550325055203675806e-01,-1.138301438422216538e+00,-1.096166500557611334e+00,-6.698007779842770626e-01,9.691654465134937890e-01,1.652539190147079173e+00,1.780635556456110269e+00,1.383943299005330418e+00,3.280349869784601746e-01,-6.479355773035520016e-01,-1.028599690587502113e+00,-1.285342603750344592e+00,-1.483942508641330038e+00,-1.620770676898709350e+00,-1.774113079253563097e+00,-1.940057798521555243e+00,-2.115641443622220841e+00,-2.186435992322401045e+00,-2.319065350449564189e+00,-2.503722023582224399e+00,-2.248181746307718054e+00,-1.951228843338487007e+00,-1.549273543965946631e+00,-9.127895208105174518e-01,9.107651437195647404e-01,1.679489814798639014e+00,2.486558825026893071e+00,3.342747186652332836e+00,4.251287133021834030e+00,4.465431531740965632e+00,4.734470465321326316e+00,5.056664052810551091e+00,5.430179862119725698e+00,5.554128098891222720e+00,5.451322614826477064e+00,5.119134797818817972e+00,4.548256354280600711e+00,4.867946551194213711e+00,5.031296387377659052e+00,5.041460477907978799e+00,4.898627663554236733e+00,4.509851320799892704e+00,4.202540291400890915e+00,3.979939247363596611e+00
-4.868409790221770450e+00,-4.927110597966007255e+00,-4.964853396438747346e+00,-4.982114520577423988e+00,-4.979106987065663681e+00,-4.972782181898318221e+00,-4.922329386054019373e+00,-4.826364911324330542e+00,-4.682091161645694832e+00,-4.661476881715020504e+00,-4.649265057716113425e+00,-4.645521953491342337e+00,-4.650268019068747982e+00,-4.627351914977227310e+00,-4.611130429270051678e+00,-4.601674360628308591e+00,-4.599025440418289534e+00,-4.479924200643830012e+00,-4.360715049368435459e+00,-4.241388887668392726e+00,-4.121935553530645002e+00,-3.853780274100505832e+00,-3.576232106946320322e+00,-3.286912495425245773e+00,-2.982397594307788058e+00,-2.907550282983280443e+00,-2.997526797430377421e+00,-3.017972849417764003e+00,-2.970324612496894723e+00,-2.910703388290800220e+00,-2.819689593889045831e+00,-2.694103538738018333e+00,-2.528799641978615842e+00,-2.586029558073055679e+00,-2.651134463935795438e+00,-2.723549676652331719e+00,-2.802708611540301931e+00,-2.591225021363929404e+00,-2.431881876569423451e+00,-2.335376331972034425e+00,-2.309598788185409202e+00,-2.435500270296043546e+00,-2.517706821992266697e+00,-2.560430586262868680e+00,-2.565644753917454057e+00,-2.625629835714748062e+00,-2.680575386298121199e+00,-2.730785620586088758e+00,-2.776517449272152049e+00,-2.518539375930047619e+00,-2.268858738459745616e+00,-1.932675557346726469e+00,-1.595559326779823373e+00,-1.551126834544269695e+00,-1.528565147774350041e+00,-1.528842839442749568e+00,-1.551947649573970134e+00,-1.676633715442792161e+00,-1.646633342434413949e+00,-1.452392423895778384e+00,-1.002610483427576415e+00,-5.649729599528701129e-01,-5.094935838833295483e-01,-9.090630237227760313e-01,-1.421136887397923765e+00,-1.712080245320477534e+00,-1.914916577147195653e+00,-2.055891593876625123e+00,-2.147224490228011540e+00,-2.209861296717933410e+00,-2.287940201205746149e+00,-2.379941858978809943e+00,-2.484319950048752723e+00,-2.510129629070970037e+00,-2.575031587002415634e+00,-2.676183172387657905e+00,-2.392571169187828861e+00,-2.061782816582409694e+00,-1.631187684454626030e+00,-9.766634205880038166e-01,8.902219849199234369e-01,2.049160770512401974e+00,3.020001602222610604e+00,3.871430321777376005e+00,4.629174962056594289e+00,4.728909417640740465e+00,4.964710501372890050e+00,5.332807787014153256e+00,5.828001556452885978e+00,5.961085820688371228e+00,5.795813334589708710e+00,5.326920297991408759e+00,4.537429404164920577e+00,4.911322032461579390e+00,5.128607569603803817e+00,5.193446407926885833e+00,5.107005718281826034e+00,4.542178097962576544e+00,4.172519772799275550e+00,4.007561186288313593e+00
-4.957397973073145003e+00,-5.046741502855018879e+00,-5.102186474527079518e+00,-5.124833239828680220e+00,-5.115117451462566578e+00,-5.136829117416601420e+00,-5.112793319233898792e+00,-5.042355895139513322e+00,-4.923525741343825146e+00,-4.898803318120462436e+00,-4.881390348002986990e+00,-4.871365215781022329e+00,-4.868773557833813825e+00,-4.811864160196519080e+00,-4.771639579103437612e+00,-4.748523842996871913e+00,-4.742767118477755339e+00,-4.633555284203848323e+00,-4.513915529238619051e+00,-4.382994004113884401e+00,-4.239745708974005822e+00,-3.959436175917850242e+00,-3.684524551402427850e+00,-3.416314197043996082e+00,-3.156513804861035055e+00,-3.090369500254778856e+00,-3.133661895044827617e+00,-3.078824956554343295e+00,-2.920336002935744801e+00,-2.784180977025548565e+00,-2.656635790649905182e+00,-2.538998307214097583e+00,-2.432706261029668582e+00,-2.477019181251978619e+00,-2.512947727679959886e+00,-2.540847599864639150e+00,-2.560981209487548593e+00,-2.349185322692718625e+00,-2.199292969826333266e+00,-2.124447790760287003e+00,-2.132566112919140444e+00,-2.279730152274614063e+00,-2.367572994361735628e+00,-2.402610075583211380e+00,-2.387167661095241034e+00,-2.446626897958458446e+00,-2.512791813785557604e+00,-2.585147579350269176e+00,-2.663189647883224875e+00,-2.450678816533780946e+00,-2.288203585375792493e+00,-2.099970850313872539e+00,-1.976626161417350813e+00,-2.037943118321889457e+00,-2.071167857046484873e+00,-2.077648526012144004e+00,-2.057637837484834087e+00,-2.132788866087474755e+00,-2.125555280669720659e+00,-2.035058766197669122e+00,-1.849114690707915454e+00,-1.667591011593608341e+00,-1.643934815966669349e+00,-1.784435717808445787e+00,-2.055706019224860182e+00,-2.266442842510242528e+00,-2.395809600010478935e+00,-2.456694665783011988e+00,-2.454200130901904586e+00,-2.477939952097116372e+00,-2.513572371280866857e+00,-2.560600956986718302e+00,-2.618411730794720338e+00,-2.623481773365524017e+00,-2.649244925520817695e+00,-2.695107822075669901e+00,-2.383962153551146823e+00,-2.040698391323193750e+00,-1.603804604961132085e+00,-9.520994744251245478e-01,8.584466241591768298e-01,2.249466967686338581e+00,3.253514279723981772e+00,3.984979028455543748e+00,4.482091195353854474e+00,4.496828175954229678e+00,4.730569672422205052e+00,5.177016486655167782e+00,5.825740301044676883e+00,6.194476015047751360e+00,6.191742090667883502e+00,5.817436418364978934e+00,5.056535529828269482e+00,5.372308319761486040e+00,5.536289680004197855e+00,5.551264169889947198e+00,5.417477068559216846e+00,4.670656370852757533e+00,4.229642375509157226e+00,4.111809788223167672e+00
-4.927957505500174307e+00,-5.051162562961471814e+00,-5.126712361390008077e+00,-5.156701889086891200e+00,-5.141928378236429786e+00,-5.225266398667227641e+00,-5.259828259523829708e+00,-5.246577989017913168e+00,-5.185149058853184556e+00,-5.145002707736977321e+00,-5.111015974282783425e+00,-5.083312408536875715e+00,-5.061995172148463062e+00,-4.947631600318851852e+00,-4.858233265621093366e+00,-4.795196675319531643e+00,-4.759569363702766509e+00,-4.662207429951374493e+00,-4.544296981806122737e+00,-4.404187932499391778e+00,-4.239680056048675816e+00,-3.987766828753540160e+00,-3.761240216187939467e+00,-3.564942920685294947e+00,-3.404108469501403000e+00,-3.316952595673000381e+00,-3.286896635414845225e+00,-3.129420957490125055e+00,-2.823284015782470568e+00,-2.649873586165969908e+00,-2.531627039742874619e+00,-2.476458958041566571e+00,-2.488567967764040212e+00,-2.468937170934173864e+00,-2.423535253513787513e+00,-2.350869550441354150e+00,-2.248298091562824119e+00,-2.089558575023109377e+00,-2.013374503615340316e+00,-2.029066255348050962e+00,-2.134608621926779914e+00,-2.242742525279338484e+00,-2.282819524264419808e+00,-2.258465586588285667e+00,-2.167509979450750635e+00,-2.177497994012846050e+00,-2.210473648849659245e+00,-2.265433341770368258e+00,-2.340829112765041575e+00,-2.267247869961194873e+00,-2.294397475972613787e+00,-2.343285876655960109e+00,-2.478104249799267134e+00,-2.567475183176328724e+00,-2.598701758775611825e+00,-2.573901069851867618e+00,-2.491400504774315738e+00,-2.551233693599169960e+00,-2.573195028994756939e+00,-2.558260027607182963e+00,-2.505769042466563512e+00,-2.357501366485905692e+00,-2.308761312593376580e+00,-2.365708521948283849e+00,-2.521191529784169827e+00,-2.652631464825732976e+00,-2.697593696182655876e+00,-2.660466296414617737e+00,-2.537648750754257332e+00,-2.529228331625333226e+00,-2.529348596397486659e+00,-2.538008330957494785e+00,-2.555120711675165079e+00,-2.554646732886229454e+00,-2.557576412087942952e+00,-2.563898081573924070e+00,-2.220575919494182315e+00,-1.883560092978128875e+00,-1.460991567726202867e+00,-8.312945480149060984e-01,8.151824090160583181e-01,2.290399158939333990e+00,3.201240478806327339e+00,3.691033570836502964e+00,3.798938046125080792e+00,3.752765366873858977e+00,4.017400677453605518e+00,4.581094533892400733e+00,5.423298884200244530e+00,6.258378957623177641e+00,6.637385133603637577e+00,6.577058755548526925e+00,6.074883629613154312e+00,6.230452630374444745e+00,6.241190034301197898e+00,6.107247518133756436e+00,5.826691181709293232e+00,4.893724743768259167e+00,4.373210247944686380e+00,4.291536701699984135e+00
-5.003701581925716013e+00,-5.087521694029393693e+00,-5.145528497029881798e+00,-5.178589489479404229e+00,-5.187181676750833859e+00,-5.321143385194278430e+00,-5.390271139609287054e+00,-5.397056776220119367e+00,-5.341737880831755270e+00,-5.303042613209204781e+00,-5.268976696063792708e+00,-5.239630424559040378e+00,-5.215083474347942172e+00,-5.077602939310390084e+00,-4.955320842072703513e+00,-4.849387049945265815e+00,-4.760892977812427596e+00,-4.677708454693946472e+00,-4.567310983934158131e+00,-4.427665486092509539e+00,-4.255893852696850388e+00,-4.049694500057392510e+00,-3.874213188432094057e+00,-3.733783515725181523e+00,-3.632472998170096723e+00,-3.412651527713084221e+00,-3.270701458112859061e+00,-3.041203559399544787e+00,-2.701940716302096757e+00,-2.580245805546957261e+00,-2.473110005012505219e+00,-2.382498200201199623e+00,-2.310355416001978135e+00,-2.254245461374040360e+00,-2.217710773795328993e+00,-2.201726044833209439e+00,-2.206737886789575942e+00,-1.990718530438425615e+00,-1.843871133382211314e+00,-1.783365797659117069e+00,-1.817844521033459060e+00,-2.051000569740601964e+00,-2.182175412472405540e+00,-2.229443267683637320e+00,-2.198223509140643017e+00,-2.050353999307653829e+00,-1.963699595446114721e+00,-1.946453269969158351e+00,-2.000411011650377713e+00,-2.100684379852377770e+00,-2.271401495577967111e+00,-2.427222338441118232e+00,-2.621655446398795331e+00,-2.752077888150784801e+00,-2.820334528581975864e+00,-2.830925596270973177e+00,-2.784509173621058320e+00,-2.912376623630502426e+00,-3.004509796686645196e+00,-3.064133792694061942e+00,-3.093129150439796859e+00,-2.926196188100460560e+00,-2.831906741654786952e+00,-2.817563296153063668e+00,-2.884358773531981335e+00,-2.980499913454153660e+00,-3.008698975765873307e+00,-2.970891265676701920e+00,-2.864464328840337082e+00,-2.853833713764509117e+00,-2.828405781407550723e+00,-2.787775652135750626e+00,-2.731264969358095929e+00,-2.687631577696103502e+00,-2.640081110574384216e+00,-2.588397699695692555e+00,-2.229296592160322721e+00,-1.846511016245895087e+00,-1.392383283305911101e+00,-7.464235522506759146e-01,7.738286925414556983e-01,2.033421256025465862e+00,2.903544277414121577e+00,3.492447406676569610e+00,3.835042180871608419e+00,3.927681020449730553e+00,4.145056278360676139e+00,4.483362426477852658e+00,4.937430197702705748e+00,5.711900648806659042e+00,6.184946062507486353e+00,6.371579221917451186e+00,6.277034117540533309e+00,6.546477547617370440e+00,6.604407794974735069e+00,6.451962694396053521e+00,6.086099469048589228e+00,5.004095052273417998e+00,4.292990736329616475e+00,3.984472809433657225e+00
-5.039416294799153206e+00,-5.099370582475144964e+00,-5.154363575221204030e+00,-5.204552543374876272e+00,-5.250075263361585698e+00,-5.420119516740867560e+00,-5.509916850288549384e+00,-5.523382535636703672e+00,-5.461081247280962891e+00,-5.426623161022740227e+00,-5.395408635102304729e+00,-5.367494258345140601e+00,-5.342931756315349112e+00,-5.206217601526773819e+00,-5.076491814489332732e+00,-4.954303385646971591e+00,-4.840223176447004505e+00,-4.764301156498699008e+00,-4.654742620885713222e+00,-4.509096413744132725e+00,-4.323717187220442959e+00,-4.123506348748790629e+00,-3.954623999228384701e+00,-3.821226166608045816e+00,-3.727124888095692867e+00,-3.407909917341024553e+00,-3.184814211734900091e+00,-2.912804322421258085e+00,-2.576434042830017646e+00,-2.494490749251023765e+00,-2.381887393806011666e+00,-2.233992558866883194e+00,-2.043156794521844066e+00,-1.896393871849656687e+00,-1.824394049712342980e+00,-1.835974259435958933e+00,-1.929630331241132257e+00,-1.668244717982022562e+00,-1.467603892328473325e+00,-1.354966956185300164e+00,-1.352502584767967475e+00,-1.730274225595564097e+00,-1.938269018618988149e+00,-2.029378456606285575e+00,-2.019484907237190541e+00,-1.780497406839392172e+00,-1.649704158395536524e+00,-1.652990524460435040e+00,-1.789618005873649276e+00,-2.042816711764106508e+00,-2.313195021570010557e+00,-2.528849371105818644e+00,-2.741360058638504071e+00,-2.909840314431504815e+00,-3.011293729295368315e+00,-3.052410977720204865e+00,-3.035644777296985453e+00,-3.186307539457410076e+00,-3.303413441518967986e+00,-3.390441431841233477e+00,-3.449668672121346535e+00,-3.292519477824274343e+00,-3.195514686867982235e+00,-3.164190694921166891e+00,-3.200476594409399578e+00,-3.266088964429933572e+00,-3.277374543541978102e+00,-3.234901970171641050e+00,-3.136488115306851565e+00,-3.126808507249345226e+00,-3.083120892044882044e+00,-3.003941856849326797e+00,-2.886352053043795163e+00,-2.804575013722043320e+00,-2.710917549956494366e+00,-2.604098123979682988e+00,-2.230717510386002189e+00,-1.791252696040638082e+00,-1.284442516402734435e+00,-5.474666033221800010e-01,8.661678651524578054e-01,1.883708056474729942e+00,2.705616733158160425e+00,3.393046612491255942e+00,3.969600571736656480e+00,4.292669329729444705e+00,4.555114704901346734e+00,4.759225232129573158e+00,4.906590454193914042e+00,5.489555690432419865e+00,5.938605008251623296e+00,6.260457124927675920e+00,6.459275298487216155e+00,6.822997630963184790e+00,6.909267213465036583e+00,6.720221932949609567e+00,6.251096929937616231e+00,5.136179390817193990e+00,4.358083722678422589e+00,3.947204228862996711e+00
-5.035953374484265055e+00,-5.086880506562252435e+00,-5.153268932618466636e+00,-5.234530408883142805e+00,-5.329984710760249378e+00,-5.522028149775773720e+00,-5.619455092395718054e+00,-5.627182151178897307e+00,-5.545584294571550998e+00,-5.518060056335739816e+00,-5.492489511832807203e+00,-5.468900065369165731e+00,-5.447317454264291925e+00,-5.333573733242536363e+00,-5.220069343148481700e+00,-5.106820242143254696e+00,-4.993843798397296752e+00,-4.918231947355942602e+00,-4.803075346798695300e+00,-4.645434078736824013e+00,-4.440786019004378637e+00,-4.208577131719999365e+00,-4.004434716838979114e+00,-3.832845972635865017e+00,-3.698344767489049723e+00,-3.302295139333922602e+00,-3.023301191975830804e+00,-2.738577244156705337e+00,-2.446123231094423200e+00,-2.390873703445858922e+00,-2.253991758634977582e+00,-2.018941358285643251e+00,-1.644145111124485359e+00,-1.280512438522497076e+00,-1.050733478232209972e+00,-1.046995395231486992e+00,-1.271293691986533414e+00,-9.091180085030735603e-01,-5.618524508986127985e-01,-2.893709053676636889e-01,-3.614797176359384467e-01,-1.179673984941821185e+00,-1.481977312100336786e+00,-1.595163225114292649e+00,-1.560928439832900860e+00,-1.280685751378801696e+00,-1.217545432201854405e+00,-1.401171028587130163e+00,-1.755775073696411059e+00,-2.102638501065842824e+00,-2.416418659681485170e+00,-2.646129491215322815e+00,-2.840234804953860603e+00,-3.044937220264711808e+00,-3.177115050483557912e+00,-3.245641054281657834e+00,-3.254538385553567004e+00,-3.394207974440702991e+00,-3.503957248442084449e+00,-3.586533978439421677e+00,-3.643786013548120373e+00,-3.520226389705441328e+00,-3.450396174384230186e+00,-3.437571277633248101e+00,-3.482381573089004867e+00,-3.519705365026432275e+00,-3.513368023041639532e+00,-3.463129862825945260e+00,-3.367026373670372053e+00,-3.360757307372865377e+00,-3.303766007768989432e+00,-3.193337919181284956e+00,-3.023623881211709108e+00,-2.907413362482284658e+00,-2.770980725378650256e+00,-2.611158083163885646e+00,-2.224852660337916621e+00,-1.716026948426506049e+00,-1.125913172454604982e+00,1.234386776458095414e-01,1.084302203018301824e+00,1.846005885834122617e+00,2.611534588826021519e+00,3.394522289558788319e+00,4.200650134270674130e+00,4.838514801768431184e+00,5.233068698287007159e+00,5.396244093050822421e+00,5.332403993971003509e+00,5.598843509200730928e+00,5.903285844400054216e+00,6.244679536857079327e+00,6.621970648411918958e+00,7.061060874464660131e+00,7.157435514862775072e+00,6.913956639030503837e+00,6.323220011055030731e+00,5.289655897617789648e+00,4.567210666218551651e+00,4.181196413309655746e+00
-4.993231309887674385e+00,-5.049870873508566227e+00,-5.142238227923446203e+00,-5.268454552794763046e+00,-5.426158308190979440e+00,-5.626709949808966549e+00,-5.719466624920563014e+00,-5.709684301995424427e+00,-5.596825343343984294e+00,-5.578933994792498297e+00,-5.561756513659505963e+00,-5.545299533915656554e+00,-5.529569488584543890e+00,-5.459759405848953584e+00,-5.384261236417155594e+00,-5.302832036352838507e+00,-5.215193994580919146e+00,-5.133446826611589131e+00,-5.006899378355012864e+00,-4.832033070156136034e+00,-4.603344755716298309e+00,-4.304239321899975046e+00,-4.024781622383715174e+00,-3.769344219230176485e+00,-3.543126069686023616e+00,-3.085465928717066486e+00,-2.772979197632616355e+00,-2.508993422509385507e+00,-2.310195465399035530e+00,-2.266946695498727404e+00,-2.082677836478834532e+00,-1.712454974395812624e+00,-9.612036862970306794e-01,8.200683015344282234e-01,1.597860910194803585e+00,1.764116883410110637e+00,1.364624620002350630e+00,1.712236606134941441e+00,1.866545710219113641e+00,1.838197089944215490e+00,1.625395717516820770e+00,6.533666075581409105e-01,-2.828416976417754136e-01,-4.989225066860028535e-01,1.385111068343664875e-01,4.524567961141670036e-01,-3.725524243639383726e-01,-1.217122863297465329e+00,-1.908319869133967561e+00,-2.270867787578323416e+00,-2.573691618519123203e+00,-2.777080248721500944e+00,-2.920396138908357919e+00,-3.160276690740248640e+00,-3.321565476226279401e+00,-3.415414903143885628e+00,-3.447337234056640387e+00,-3.547705414930976797e+00,-3.622513936245232102e+00,-3.673324723842737338e+00,-3.701126265968343709e+00,-3.635457619067067547e+00,-3.619593172178178886e+00,-3.654181650216510757e+00,-3.737822695384749760e+00,-3.747845505510437381e+00,-3.722899733648249665e+00,-3.662270877884865605e+00,-3.564138409460399171e+00,-3.563375026569422399e+00,-3.496796456998650271e+00,-3.360493155310683822e+00,-3.145413794020359699e+00,-2.997598681556437494e+00,-2.820958866003770549e+00,-2.609647704128420287e+00,-2.211644081453339794e+00,-1.618051214602569177e+00,-8.901656528540995428e-01,6.403321107893470421e-01,1.414620455603008198e+00,1.921631934758693872e+00,2.623457582184697934e+00,3.496848582825235585e+00,4.525123534333953756e+00,5.554056466729625718e+00,6.159913298115995417e+00,6.370501898921813400e+00,6.194066286541764832e+00,6.036003161668187289e+00,6.079729182940463161e+00,6.324389596674709679e+00,6.765426369281046348e+00,7.261498152504776371e+00,7.350156085894791858e+00,7.034460639771410229e+00,6.303113012981269137e+00,5.464171760617816176e+00,4.916517726894659823e+00,4.677680151848854884e+00
-4.787654475899219442e+00,-4.935319627910004670e+00,-5.102775493208964619e+00,-5.288142310299387638e+00,-5.489605988528450276e+00,-5.643227015885926789e+00,-5.724638332740330959e+00,-5.736914900262425121e+00,-5.680504973093844612e+00,-5.682839599423977539e+00,-5.671065139431764379e+00,-5.645093308177881575e+00,-5.604726740872451707e+00,-5.532636165938360939e+00,-5.452907081822016444e+00,-5.365198965076450222e+00,-5.269113380851402795e+00,-5.171242970385715232e+00,-5.028223055694264865e+00,-4.836049579710940627e+00,-4.588550879916736491e+00,-4.268150735849313371e+00,-3.968194564194660323e+00,-3.693666385003349983e+00,-3.450640592285732389e+00,-3.035548519926849931e+00,-2.745361325979992717e+00,-2.496074802453922548e+00,-2.301020783175673046e+00,-2.153122731346644336e+00,-1.888812735018264188e+00,-1.445588046361417245e+00,-4.497457633921305153e-01,1.369358471107291697e+00,2.212149399817555206e+00,2.637206014072030147e+00,2.694021514804880724e+00,2.941893690977173570e+00,3.073543929030807309e+00,3.092099521715248933e+00,2.997977472561510037e+00,2.259486268598291936e+00,1.727390917662396275e+00,1.430186579161348392e+00,1.392312631107586629e+00,1.471790942876686881e+00,9.329999371019074283e-01,-7.226075265467692965e-01,-1.654346932987706298e+00,-2.229547747312728756e+00,-2.660553820156814187e+00,-2.954839047057629120e+00,-3.160317012535690750e+00,-3.402527938675520058e+00,-3.578514073252115679e+00,-3.697743016585984144e+00,-3.765609871748316184e+00,-3.758573475411828291e+00,-3.756641378048365176e+00,-3.759821448658921650e+00,-3.768100744096555044e+00,-3.737327585299128785e+00,-3.731040521321892012e+00,-3.749362731636585622e+00,-3.791937505386409057e+00,-3.851336125991295933e+00,-3.860524693225273918e+00,-3.819865560417730066e+00,-3.727727985429694968e+00,-3.685006114762185536e+00,-3.595212486156052822e+00,-3.454678595425169085e+00,-3.256842673059904492e+00,-2.998847936492667454e+00,-2.703455768858815667e+00,-2.356645208972500960e+00,-1.831640131827343199e+00,-1.060517989228707769e+00,7.451244467118066650e-01,1.875469862321675896e+00,2.600432402086123584e+00,2.620070403384224811e+00,2.913210106391550980e+00,3.464274151382329414e+00,4.250960365115322048e+00,5.352657994358485993e+00,6.054685673303370486e+00,6.388703566790076671e+00,6.366976820954048932e+00,6.452064154887851011e+00,6.687462112359667366e+00,7.070060785467313202e+00,7.595263325159391066e+00,7.888274761806608915e+00,7.787533619692392328e+00,7.289892294647015270e+00,6.378346197374686888e+00,5.818340364425798938e+00,5.466485621795091454e+00,5.330340315906071602e+00
-4.636363680200751070e+00,-4.844259660741585094e+00,-5.055258730134475798e+00,-5.268988107675190768e+00,-5.485128641276654449e+00,-5.597239119047799250e+00,-5.671529233664267977e+00,-5.709475500331155473e+00,-5.711802314289151639e+00,-5.739130082436417091e+00,-5.737728784373199886e+00,-5.707577259854947016e+00,-5.648215100869675709e+00,-5.577874118017408733e+00,-5.498056607813505359e+00,-5.408343016535843262e+00,-5.308231611546289308e+00,-5.202106520857860517e+00,-5.050734097654274279e+00,-4.849879468026634832e+00,-4.593055632352847084e+00,-4.254078430612731054e+00,-3.936470565912502995e+00,-3.645821129644362557e+00,-3.389073158402143182e+00,-2.982850611102365601e+00,-2.670173030305058592e+00,-2.380710557107883929e+00,-2.123975989276492005e+00,-1.843984030135323193e+00,-1.440033050141740878e+00,-7.290598393426365176e-01,1.185244884618231298e+00,2.285542157157083309e+00,3.082127056859937486e+00,3.642959160158503629e+00,3.994365918260050830e+00,4.149875841246889685e+00,4.247192362560994638e+00,4.287134510477601523e+00,4.270026793113540720e+00,3.677671797655511110e+00,3.180157999185421858e+00,2.784326880418559913e+00,2.497367319373179129e+00,2.403683306224681182e+00,1.783990371569131428e+00,4.798418983895911816e-01,-1.378923025977399908e+00,-2.154005402209349107e+00,-2.678328911870745621e+00,-3.028770894177026829e+00,-3.263926022788830039e+00,-3.517194669534962959e+00,-3.712039600830965291e+00,-3.857324467352284625e+00,-3.958509882303816063e+00,-3.902944829872147636e+00,-3.877974783193027353e+00,-3.884189839652897991e+00,-3.921441727116586229e+00,-3.926890422939318892e+00,-3.932501577772412382e+00,-3.938274497213344993e+00,-3.944208470964496005e+00,-4.025151544238336321e+00,-4.042526742671260109e+00,-3.997163118489440503e+00,-3.886864616356481950e+00,-3.799767760846817222e+00,-3.682296276502361909e+00,-3.531420258281501745e+00,-3.342619415121072191e+00,-3.014742053102100083e+00,-2.642542788458460912e+00,-2.203677104436808865e+00,-1.618611595443401496e+00,-6.619220934604280737e-01,1.312043182398184626e+00,2.393774354827959083e+00,3.146401856325280022e+00,2.965483114467234671e+00,3.109259723384094620e+00,3.569204302619242153e+00,4.322516977734037980e+00,5.401638867306470360e+00,6.115492388375069588e+00,6.493290359960933067e+00,6.547532525549183191e+00,6.746792498392254700e+00,7.046223833670337555e+00,7.443357887604331147e+00,7.935238998708891600e+00,8.138575211100050666e+00,7.955574432765833315e+00,7.380750588357165576e+00,6.394851123409099003e+00,5.989683804071917805e+00,5.705416772611706655e+00,5.545480767838169456e+00
-4.544783525923214995e+00,-4.778034253987034852e+00,-4.999458298279700230e+00,-5.210563609572000487e+00,-5.412557703318104707e+00,-5.487174925970722761e+00,-5.558469024512542767e+00,-5.626566322059929348e+00,-5.691581564769369272e+00,-5.749204213566206256e+00,-5.763227470721034251e+00,-5.733971231038832883e+00,-5.660764496656762290e+00,-5.596143579747949737e+00,-5.520286362245673928e+00,-5.432722186412059173e+00,-5.332874409337701849e+00,-5.226160302594360374e+00,-5.074416702158814907e+00,-4.873439190343346716e+00,-4.616802522622275085e+00,-4.262240480053920422e+00,-3.930211744785774730e+00,-3.626910100900861522e+00,-3.360123728868365856e+00,-2.927222036546742956e+00,-2.543198622846600365e+00,-2.146445435140147406e+00,-1.728217336911146873e+00,-1.196689659723861210e+00,1.991398098007117756e-01,1.588150517355386704e+00,2.746536563957095556e+00,3.504029900333494929e+00,4.175557594497318448e+00,4.773199307091222643e+00,5.304442965717719005e+00,5.362949188364785513e+00,5.412984444276020213e+00,5.454596537476219531e+00,5.487824509239147552e+00,5.023100470043518229e+00,4.551847840021281399e+00,4.072906832970350166e+00,3.584753384943162757e+00,3.312756458270275761e+00,2.573887810424666966e+00,1.266678617209185953e+00,-1.065541896682626222e+00,-2.040443298467327526e+00,-2.628418904564248315e+00,-3.006544979545703988e+00,-3.244309170793936659e+00,-3.516779019479210788e+00,-3.735401222075067640e+00,-3.909220491324311819e+00,-4.044018094862967594e+00,-3.988047772532286039e+00,-3.987682177122270133e+00,-4.042936393365066827e+00,-4.151590254489368803e+00,-4.192267267462439051e+00,-4.211077129950084874e+00,-4.208313070438805426e+00,-4.183932331569105934e+00,-4.260693714564645518e+00,-4.263226137730542931e+00,-4.191664141059481707e+00,-4.042074274351695529e+00,-3.908265151136379956e+00,-3.758835538257910613e+00,-3.591836407135838627e+00,-3.404683393129916524e+00,-3.045051716683432996e+00,-2.642136788218716337e+00,-2.171982863330327973e+00,-1.639012909094264447e+00,-7.472731027387904401e-01,1.209028597775783753e+00,2.327775213803354948e+00,3.137126538574560364e+00,2.986268171626229151e+00,3.215405641603964249e+00,3.809267185001210532e+00,4.736506588960869735e+00,5.699671627838047705e+00,6.341357669554359866e+00,6.683435578703826430e+00,6.735628630227841640e+00,6.923529321796519476e+00,7.164036389542773442e+00,7.456131199362292961e+00,7.798668990360507536e+00,8.019634137238531579e+00,7.857791126920865565e+00,7.308273001257427737e+00,6.352719306374326358e+00,5.981442119294788640e+00,5.641541126291543584e+00,5.333946447948965108e+00
-4.516547658096063067e+00,-4.737684966773281658e+00,-4.935093218674272642e+00,-5.111522419563350184e+00,-5.269080370469922947e+00,-5.309050752256306183e+00,-5.381680609730669751e+00,-5.485672869924429484e+00,-5.619286595472311241e+00,-5.713306474473748509e+00,-5.748109049454843245e+00,-5.724774420144237652e+00,-5.642581361629005698e+00,-5.587709084299776308e+00,-5.519873261081830407e+00,-5.438588828503475803e+00,-5.343242058162458008e+00,-5.243498032892508931e+00,-5.099254545876069855e+00,-4.906588590883347756e+00,-4.659497360294801993e+00,-4.292510052632194650e+00,-3.949539166405831470e+00,-3.637384620255316392e+00,-3.364634348341164927e+00,-2.868492298421491782e+00,-2.356080321344684592e+00,-1.746059897991054433e+00,-8.491643694468100634e-01,1.219357726407956699e+00,2.557650716681985070e+00,3.651490563741240702e+00,4.576639230748758003e+00,4.987114731636354215e+00,5.469796975407525075e+00,6.021444815164390896e+00,6.638993059717822831e+00,6.592703737617824800e+00,6.582640519189642880e+00,6.608836509731705000e+00,6.671205754501146501e+00,6.329529796324568913e+00,5.887533761770940899e+00,5.340319798243607252e+00,4.680557215620765987e+00,4.217894058132955593e+00,3.332865163823919730e+00,1.942922597064584034e+00,-6.623565812550246124e-01,-1.881991472373556906e+00,-2.506784227466533732e+00,-2.885940496245401832e+00,-3.099127354611471930e+00,-3.401238797673502567e+00,-3.650714429764567726e+00,-3.857779390630875493e+00,-4.028977946831524548e+00,-4.017650388347814072e+00,-4.086699967362163122e+00,-4.232194376064791541e+00,-4.446636086263521470e+00,-4.520124646957331294e+00,-4.552633213576986471e+00,-4.545041203736277957e+00,-4.497145530547095760e+00,-4.548382996308123261e+00,-4.516954152485033624e+00,-4.401088357049935951e+00,-4.193792986525564537e+00,-4.011006660613191777e+00,-3.825463243555585091e+00,-3.636740766505816236e+00,-3.444316703846335148e+00,-3.089352663230548579e+00,-2.702265040785357009e+00,-2.266655460125750476e+00,-1.885281154189450525e+00,-1.218822014190412251e+00,3.810030754615416626e-01,1.665728150171145394e+00,2.571501597630051705e+00,2.683879571672277642e+00,3.233491596194223217e+00,4.179539060116653104e+00,5.475839430933270080e+00,6.239179242272564707e+00,6.728826710192260308e+00,6.957705742782637870e+00,6.931162041669086449e+00,6.984129567709074671e+00,7.043340031043860527e+00,7.108762578085723760e+00,7.180363751485701052e+00,7.528076900363460666e+00,7.492159942894292435e+00,7.071475109763408540e+00,6.251716121453500641e+00,5.793464146145139715e+00,5.272735807724769685e+00,4.685082630872510201e+00
-4.433170349650840336e+00,-4.613522667396451560e+00,-4.788814258969404491e+00,-4.959581752729439685e+00,-5.126277291356297283e+00,-5.190203660763705429e+00,-5.269759362641841527e+00,-5.364249059068229464e+00,-5.472899297711778743e+00,-5.564143860754758641e+00,-5.596228183487567343e+00,-5.570174652410026184e+00,-5.485154896012204517e+00,-5.492921897416469079e+00,-5.490559642752947056e+00,-5.478055028180778940e+00,-5.455338309817769904e+00,-5.337222193080245702e+00,-5.165169905201588030e+00,-4.933541761092226530e+00,-4.633411617246060210e+00,-4.236563262270820474e+00,-3.856454849734688661e+00,-3.498546900255740333e+00,-3.170367090884479211e+00,-2.678533517149782384e+00,-2.127451215536470652e+00,-1.418169240589802316e+00,4.366771921618302632e-01,2.327229629372989717e+00,3.739462028332039889e+00,4.884614364267816811e+00,5.818446769423355924e+00,6.225135058310490521e+00,6.721239184271093237e+00,7.303211883340545718e+00,7.967518043386635718e+00,8.066659084564307136e+00,8.088429636956169233e+00,8.032955464964302905e+00,7.899914655270322328e+00,7.566076348480879510e+00,7.109129744856743649e+00,6.524032858082380315e+00,5.803175409469366386e+00,4.854703721607159572e+00,3.570414778032511727e+00,1.847357052010937473e+00,-9.441241238292173987e-01,-1.948212266324271802e+00,-2.543964809615468337e+00,-2.928630883908931448e+00,-3.162343579261102544e+00,-3.421842635346525441e+00,-3.647929337984310294e+00,-3.846499865442362331e+00,-4.021632168764273985e+00,-4.098994022023987327e+00,-4.216481421759326054e+00,-4.370859876866231453e+00,-4.558382766076257475e+00,-4.658887955872856423e+00,-4.728025237077273957e+00,-4.767159574972120950e+00,-4.777028396168840452e+00,-4.790534074305378809e+00,-4.722026870698459611e+00,-4.567818237337780474e+00,-4.318737519501842925e+00,-4.074403078769488040e+00,-3.818825613878368941e+00,-3.549577386835593096e+00,-3.263276285583182279e+00,-2.986030351145184003e+00,-2.678197679886932026e+00,-2.327674543363849491e+00,-2.112529847256511051e+00,-1.449866587794268025e+00,-3.057451436580332915e-01,1.450973598349560412e+00,2.405887075456092372e+00,2.935086171483521689e+00,3.788138299442877610e+00,4.928047791376485520e+00,6.324685817306176183e+00,6.988874503208553968e+00,7.471623535118619763e+00,7.780527657854844570e+00,7.919903548533401505e+00,7.813748790930979737e+00,7.677704481420249749e+00,7.511446395368600371e+00,7.314561093215847798e+00,7.540998211284043684e+00,7.434508714252973327e+00,6.992156192661247438e+00,6.200659080387763034e+00,5.459753037674963672e+00,4.650704007527267869e+00,3.762859265738761394e+00
