1801,1804,1770,1718,1685,1656,1631,1609,1591,1575,1564,1555,1539,1512,1509,1488,1465,1456,1450,1439,1415,1387,1381,1376,1373,1373,1374,1374,1367,1384,1432,1473,1507,1527,1552,1580,1614,1660,1719,1756,1788,1822,1856,1885,1914,1924,1934,1942,1944,1931,1916,1900,1896,1889,1885,1888,1899,1911,1913,1919,1923,1926,1921,1913,1881,1864,1851,1840,1826,1816,1813,1796,1778,1763,1751,1752,1746,1740,1747,1745,1740,1728,1719,1700,1679,1656,1638,1623,1611,1600,1588,1572,1553,1538,1530,1523,1523,1526,1513,1495,1502,1507,1509,1503,1507,1509,1512,1523,1538,1551,1572,1590,1600,1599,1599,1595,1592,1590,1591,1588,1583,1582,1582,1583,1581,1591,1581,1650,1624,1615,1604,1593,1578,1564,1558,1544,1539,1536,1526,1470,1444,1414,1385,1366,1348,1335,1326,1309,1295,1285,1277,1273,1271,1267,1264,1260,1257,1253,1247,1246,1246,1246,1247,1254,1263,1267,1267,1269,1278,1287,1303,1312,1331,1356,1382,1406,1411,1386,1366,1360,1366,1363,1344,1318,1291,1267,1243,1228,1215,1197,1183,1174,1161,1151,1140,1138,1122,1122,1121,1122,1109,1094,1082,1060,1069,1104,1126,1143,1159,1173,1185,1204,1224,1241,1258,1281,1314,1330,1343,1363,1386,1411,1442,1469,1494,1528,1557,1534,1516,1501,1451,1484,1491,1512,1529,1554,1577,1606,1635,1648,1663,1670,1701,1732,1759,1789,1824,1864,1914,1918,1881
1764,1770,1757,1703,1676,1647,1621,1600,1584,1573,1567,1550,1525,1501,1494,1487,1480,1473,1464,1445,1421,1389,1370,1365,1362,1359,1359,1355,1357,1390,1414,1458,1471,1509,1541,1571,1610,1627,1679,1727,1764,1794,1829,1861,1898,1936,1957,1963,1966,1952,1936,1917,1920,1908,1903,1902,1910,1930,1934,1937,1937,1933,1915,1894,1875,1866,1852,1844,1829,1816,1808,1787,1774,1771,1756,1750,1748,1751,1742,1732,1722,1718,1702,1681,1664,1655,1637,1622,1609,1595,1583,1565,1547,1544,1537,1546,1551,1531,1512,1516,1524,1532,1538,1536,1550,1538,1551,1555,1576,1587,1604,1622,1627,1626,1628,1625,1623,1624,1622,1617,1614,1614,1616,1618,1627,1627,1623,1663,1653,1639,1625,1605,1581,1570,1562,1543,1531,1528,1510,1493,1471,1436,1407,1391,1367,1354,1334,1318,1304,1293,1283,1279,1275,1268,1264,1261,1258,1256,1253,1247,1244,1243,1243,1241,1241,1244,1247,1249,1255,1263,1278,1290,1307,1333,1359,1384,1397,1379,1360,1350,1354,1356,1343,1320,1291,1261,1241,1228,1219,1200,1191,1176,1163,1149,1140,1127,1120,1118,1113,1113,1110,1095,1084,1058,1067,1095,1118,1134,1155,1170,1182,1202,1222,1238,1254,1275,1304,1332,1345,1363,1385,1408,1439,1467,1491,1523,1533,1503,1489,1482,1445,1468,1484,1516,1537,1552,1581,1592,1619,1647,1664,1686,1713,1738,1764,1795,1833,1873,1919,1900,1864
1765,1731,1715,1702,1675,1642,1614,1590,1579,1568,1551,1534,1514,1499,1494,1492,1487,1484,1469,1442,1423,1386,1360,1355,1356,1351,1344,1344,1366,1385,1405,1422,1450,1511,1531,1521,1553,1583,1662,1714,1748,1769,1806,1840,1874,1921,1962,1981,1984,1969,1952,1940,1938,1929,1921,1922,1934,1948,1954,1952,1947,1922,1901,1887,1875,1868,1857,1846,1827,1808,1789,1787,1786,1770,1768,1760,1755,1750,1737,1728,1720,1692,1678,1669,1658,1646,1630,1615,1601,1587,1570,1553,1553,1551,1568,1567,1547,1543,1549,1554,1559,1564,1572,1571,1595,1581,1591,1583,1601,1616,1631,1646,1654,1656,1656,1656,1655,1654,1653,1651,1646,1648,1654,1656,1664,1662,1690,1695,1690,1662,1656,1617,1591,1587,1571,1544,1513,1512,1507,1489,1471,1448,1416,1395,1370,1351,1334,1320,1300,1289,1288,1286,1280,1278,1277,1274,1270,1267,1263,1256,1250,1243,1244,1242,1241,1239,1238,1240,1241,1246,1257,1269,1284,1305,1329,1358,1393,1380,1359,1343,1340,1343,1342,1322,1294,1267,1247,1229,1217,1204,1189,1173,1156,1143,1135,1126,1117,1117,1107,1104,1096,1095,1084,1057,1058,1076,1107,1125,1145,1160,1177,1198,1219,1235,1250,1268,1291,1320,1342,1359,1382,1405,1438,1464,1488,1520,1508,1483,1463,1464,1430,1455,1475,1507,1531,1544,1575,1601,1617,1642,1673,1704,1725,1746,1770,1804,1842,1880,1921,1895,1852
1766,1726,1694,1679,1660,1635,1618,1607,1582,1566,1530,1519,1510,1500,1501,1500,1495,1475,1453,1430,1413,1381,1346,1345,1347,1356,1336,1364,1364,1350,1367,1424,1430,1493,1478,1514,1545,1578,1615,1666,1722,1757,1792,1827,1869,1908,1951,1991,1997,1988,1970,1961,1950,1954,1941,1945,1957,1986,1978,1962,1935,1905,1893,1888,1878,1868,1855,1839,1819,1803,1789,1790,1786,1772,1767,1763,1754,1748,1733,1714,1704,1695,1681,1672,1662,1649,1631,1614,1597,1581,1569,1567,1559,1567,1569,1573,1572,1579,1584,1590,1596,1600,1606,1609,1634,1620,1620,1615,1630,1646,1660,1673,1682,1687,1687,1684,1686,1689,1693,1690,1684,1686,1691,1691,1691,1696,1701,1679,1655,1635,1616,1588,1574,1567,1541,1527,1514,1497,1490,1484,1463,1435,1406,1384,1361,1340,1323,1309,1303,1299,1297,1305,1295,1294,1289,1285,1283,1279,1276,1270,1276,1269,1264,1258,1251,1243,1238,1237,1236,1235,1243,1254,1275,1281,1305,1331,1363,1380,1361,1344,1334,1331,1323,1308,1294,1279,1255,1231,1220,1204,1192,1186,1169,1160,1143,1133,1128,1117,1105,1093,1096,1087,1069,1066,1056,1058,1098,1119,1136,1155,1172,1192,1215,1232,1245,1262,1281,1310,1335,1352,1376,1404,1439,1464,1481,1513,1495,1467,1449,1448,1425,1436,1458,1489,1511,1538,1572,1595,1616,1653,1686,1712,1730,1752,1776,1811,1849,1889,1917,1897,1854
1746,1714,1686,1660,1643,1626,1609,1593,1585,1560,1531,1517,1509,1509,1502,1488,1469,1451,1434,1415,1400,1348,1301,1327,1341,1279,1280,1296,1301,1318,1344,1377,1401,1424,1439,1535,1583,1603,1628,1668,1715,1748,1784,1819,1860,1897,1936,1978,2011,2009,1992,1978,1963,1957,1965,1974,1997,1997,1948,1931,1909,1900,1901,1889,1878,1865,1849,1831,1813,1803,1801,1789,1784,1779,1766,1757,1738,1731,1719,1710,1703,1693,1684,1669,1656,1645,1630,1612,1595,1590,1594,1584,1581,1591,1592,1597,1603,1613,1616,1624,1634,1640,1645,1654,1667,1649,1647,1651,1661,1675,1689,1701,1709,1715,1717,1714,1714,1721,1719,1718,1724,1723,1723,1721,1719,1711,1692,1685,1652,1622,1612,1596,1577,1559,1541,1522,1512,1499,1481,1471,1451,1422,1395,1371,1357,1343,1327,1320,1317,1308,1306,1308,1310,1307,1300,1295,1295,1291,1287,1283,1279,1284,1281,1277,1270,1263,1258,1248,1246,1242,1233,1242,1255,1268,1287,1310,1334,1354,1360,1343,1332,1327,1326,1313,1296,1277,1260,1248,1224,1208,1197,1188,1175,1166,1149,1134,1124,1115,1105,1100,1096,1091,1081,1060,1057,1058,1086,1106,1121,1147,1164,1185,1210,1229,1242,1255,1273,1301,1330,1349,1369,1401,1438,1470,1472,1502,1484,1455,1435,1426,1407,1427,1453,1476,1504,1535,1569,1602,1628,1659,1684,1716,1730,1751,1782,1820,1860,1901,1913,1870,1834
1735,1706,1679,1653,1630,1615,1600,1584,1569,1544,1539,1516,1519,1513,1497,1471,1448,1429,1420,1399,1354,1311,1276,1277,1260,1244,1254,1271,1285,1303,1327,1359,1363,1393,1447,1479,1602,1622,1620,1652,1690,1703,1732,1762,1832,1871,1930,1950,1979,2015,2018,1997,1984,1984,1992,2011,1992,1952,1932,1921,1912,1901,1902,1890,1877,1862,1843,1824,1810,1801,1796,1798,1790,1780,1753,1746,1722,1710,1699,1686,1676,1669,1664,1647,1629,1610,1602,1606,1614,1618,1598,1605,1613,1620,1622,1625,1638,1642,1646,1655,1668,1676,1681,1688,1689,1682,1680,1687,1694,1705,1718,1730,1738,1741,1743,1745,1745,1745,1746,1753,1757,1756,1754,1750,1745,1734,1708,1673,1649,1653,1641,1618,1598,1580,1557,1532,1515,1506,1477,1460,1445,1418,1406,1389,1368,1343,1339,1336,1330,1314,1316,1320,1317,1309,1304,1304,1292,1282,1277,1277,1281,1289,1292,1290,1286,1282,1279,1264,1255,1253,1239,1237,1247,1261,1278,1301,1317,1321,1330,1336,1329,1325,1323,1314,1309,1288,1266,1253,1233,1222,1204,1192,1181,1166,1150,1135,1124,1115,1110,1100,1094,1090,1084,1059,1053,1057,1064,1087,1106,1130,1150,1170,1196,1219,1236,1249,1266,1293,1323,1346,1361,1392,1430,1463,1472,1482,1467,1448,1430,1412,1394,1425,1448,1477,1504,1536,1572,1602,1623,1645,1676,1714,1745,1767,1799,1835,1873,1910,1874,1832,1804
1729,1701,1675,1651,1630,1611,1592,1574,1559,1548,1537,1532,1531,1505,1476,1455,1434,1404,1374,1339,1306,1278,1259,1250,1244,1239,1251,1268,1285,1301,1321,1340,1358,1382,1406,1431,1450,1484,1627,1589,1659,1700,1675,1723,1791,1822,1877,1916,1948,1999,2029,2025,2013,2023,2030,1997,1967,1945,1936,1927,1920,1905,1901,1889,1874,1856,1837,1819,1817,1811,1801,1793,1781,1776,1757,1732,1711,1698,1681,1670,1660,1648,1630,1619,1616,1627,1624,1636,1638,1613,1621,1635,1645,1651,1653,1656,1663,1670,1676,1686,1698,1707,1715,1720,1720,1714,1712,1719,1727,1738,1747,1753,1755,1765,1766,1775,1777,1770,1777,1784,1788,1786,1786,1786,1797,1754,1721,1687,1674,1653,1656,1637,1623,1601,1575,1552,1520,1498,1492,1472,1443,1432,1422,1406,1383,1370,1364,1343,1327,1320,1329,1337,1323,1296,1285,1284,1283,1284,1281,1278,1277,1279,1287,1287,1285,1283,1269,1251,1240,1247,1245,1237,1232,1238,1270,1299,1308,1309,1306,1315,1314,1316,1322,1323,1316,1299,1272,1249,1238,1223,1205,1193,1183,1171,1157,1144,1135,1123,1112,1105,1097,1086,1087,1051,1053,1056,1057,1062,1089,1113,1130,1149,1174,1200,1221,1238,1257,1285,1316,1344,1363,1384,1418,1455,1471,1475,1455,1439,1426,1383,1387,1414,1438,1469,1501,1532,1568,1596,1621,1648,1687,1726,1763,1790,1817,1848,1884,1899,1860,1812,1775
1725,1698,1673,1650,1630,1612,1597,1584,1565,1547,1538,1521,1513,1490,1461,1440,1405,1370,1338,1312,1285,1256,1245,1241,1237,1237,1253,1267,1282,1300,1310,1330,1349,1371,1393,1417,1431,1456,1477,1597,1680,1626,1680,1716,1748,1795,1816,1881,1928,1962,2010,2051,2041,2020,1993,1972,1953,1940,1933,1931,1923,1905,1899,1885,1866,1847,1830,1824,1812,1806,1802,1800,1795,1786,1772,1748,1713,1694,1683,1663,1651,1642,1650,1657,1654,1652,1660,1652,1635,1642,1650,1664,1675,1678,1681,1687,1692,1699,1705,1719,1728,1736,1747,1753,1756,1750,1743,1749,1759,1773,1780,1785,1791,1797,1806,1827,1822,1864,1868,1863,1836,1808,1817,1817,1799,1761,1727,1692,1669,1653,1640,1638,1629,1600,1574,1551,1525,1507,1493,1479,1462,1434,1417,1408,1404,1389,1364,1340,1336,1337,1346,1347,1323,1306,1290,1272,1261,1265,1274,1276,1275,1272,1270,1267,1259,1249,1237,1228,1224,1233,1243,1244,1240,1230,1242,1266,1275,1283,1289,1300,1306,1306,1309,1317,1313,1304,1285,1260,1247,1231,1212,1200,1193,1182,1171,1155,1142,1131,1122,1113,1103,1090,1082,1059,1050,1053,1055,1053,1078,1093,1108,1128,1151,1177,1200,1220,1241,1270,1305,1334,1354,1369,1404,1449,1467,1473,1450,1427,1409,1380,1374,1403,1417,1451,1485,1518,1554,1592,1621,1649,1684,1716,1747,1776,1804,1836,1871,1879,1842,1798,1754
1723,1697,1672,1650,1630,1613,1600,1590,1579,1551,1524,1509,1490,1464,1444,1414,1374,1342,1317,1296,1277,1259,1247,1239,1234,1235,1249,1260,1276,1289,1305,1323,1342,1362,1388,1412,1424,1442,1462,1491,1522,1563,1659,1669,1728,1768,1824,1836,1907,1959,1985,2040,2017,1997,1971,1953,1941,1932,1939,1926,1916,1909,1893,1877,1856,1835,1830,1820,1815,1811,1813,1804,1795,1781,1774,1753,1723,1698,1682,1671,1659,1670,1687,1685,1671,1673,1669,1662,1667,1674,1685,1694,1702,1704,1709,1718,1722,1730,1739,1752,1759,1768,1780,1787,1790,1784,1777,1780,1793,1814,1819,1822,1826,1830,1859,1871,1892,1897,1902,1907,1904,1871,1832,1833,1802,1760,1726,1694,1679,1673,1660,1647,1638,1614,1584,1558,1537,1513,1494,1487,1469,1443,1437,1433,1407,1387,1369,1372,1360,1355,1358,1347,1320,1301,1280,1271,1267,1257,1260,1261,1262,1263,1262,1257,1250,1243,1229,1224,1221,1217,1225,1233,1240,1231,1230,1251,1256,1261,1273,1281,1285,1288,1294,1305,1313,1303,1292,1273,1255,1239,1220,1208,1201,1190,1183,1169,1148,1135,1124,1114,1107,1096,1085,1079,1059,1048,1051,1052,1072,1079,1088,1112,1134,1154,1175,1197,1218,1240,1270,1303,1327,1349,1377,1429,1461,1465,1454,1430,1401,1364,1368,1402,1422,1451,1480,1513,1548,1577,1604,1638,1667,1701,1735,1770,1805,1840,1872,1858,1819,1775,1732
1720,1695,1671,1649,1630,1610,1595,1582,1559,1532,1513,1503,1484,1460,1429,1358,1331,1316,1299,1283,1272,1262,1249,1234,1230,1235,1244,1256,1275,1290,1305,1318,1336,1350,1370,1392,1421,1437,1460,1489,1500,1516,1536,1686,1722,1750,1790,1809,1845,1870,1953,2026,2016,1996,1970,1946,1941,1938,1932,1920,1907,1898,1885,1868,1854,1840,1837,1827,1818,1820,1817,1799,1790,1784,1772,1757,1741,1713,1703,1687,1695,1703,1707,1706,1710,1704,1704,1687,1695,1703,1713,1720,1728,1728,1736,1754,1756,1763,1769,1786,1793,1800,1808,1811,1809,1813,1812,1812,1829,1857,1858,1863,1866,1855,1908,1918,1921,1921,1920,1921,1913,1910,1857,1831,1791,1759,1731,1701,1686,1689,1676,1666,1657,1629,1593,1575,1549,1524,1501,1481,1466,1463,1446,1428,1418,1403,1392,1380,1369,1364,1361,1343,1337,1309,1287,1272,1261,1250,1246,1242,1241,1245,1246,1248,1244,1238,1225,1220,1213,1210,1213,1219,1234,1235,1224,1236,1239,1248,1257,1268,1276,1276,1282,1293,1303,1303,1293,1278,1259,1241,1226,1214,1205,1198,1188,1179,1158,1143,1129,1116,1108,1101,1092,1076,1052,1050,1047,1061,1070,1071,1076,1094,1114,1133,1151,1172,1194,1214,1239,1271,1303,1331,1344,1402,1452,1450,1433,1414,1396,1352,1358,1395,1419,1456,1487,1522,1565,1595,1636,1667,1692,1721,1748,1779,1811,1842,1869,1824,1796,1752,1715
1720,1689,1666,1646,1626,1604,1588,1562,1541,1524,1509,1492,1467,1446,1419,1368,1331,1309,1287,1274,1272,1263,1251,1233,1228,1234,1243,1257,1269,1281,1301,1313,1333,1344,1362,1386,1410,1434,1461,1471,1481,1507,1523,1606,1742,1735,1739,1766,1794,1841,1933,2002,2029,2004,1975,1951,1935,1927,1923,1916,1906,1890,1878,1857,1848,1850,1846,1835,1824,1812,1811,1808,1797,1786,1775,1750,1749,1732,1718,1723,1726,1733,1733,1739,1741,1739,1718,1716,1721,1730,1741,1750,1757,1761,1772,1785,1790,1791,1803,1814,1827,1832,1833,1828,1837,1848,1851,1856,1861,1880,1881,1896,1894,1920,1936,1945,1951,1946,1937,1940,1932,1925,1871,1835,1800,1767,1745,1731,1714,1701,1690,1672,1640,1621,1603,1585,1559,1536,1518,1493,1485,1474,1458,1439,1424,1414,1400,1383,1380,1375,1376,1370,1338,1303,1276,1261,1249,1245,1252,1252,1248,1237,1231,1225,1234,1236,1224,1220,1213,1210,1205,1205,1213,1239,1219,1221,1225,1234,1241,1253,1266,1274,1273,1280,1290,1299,1292,1279,1266,1253,1234,1220,1210,1199,1191,1176,1168,1147,1138,1123,1112,1105,1099,1071,1054,1050,1047,1054,1072,1070,1067,1077,1094,1113,1131,1150,1171,1191,1216,1248,1281,1311,1328,1391,1440,1447,1434,1402,1382,1357,1344,1387,1407,1447,1479,1516,1563,1601,1620,1644,1673,1711,1748,1784,1816,1844,1857,1815,1776,1736,1709
1723,1695,1672,1644,1625,1607,1584,1560,1545,1526,1504,1486,1459,1430,1381,1347,1330,1311,1293,1279,1267,1251,1246,1230,1227,1232,1239,1254,1262,1272,1290,1300,1314,1342,1359,1378,1400,1430,1441,1457,1469,1495,1513,1532,1561,1663,1717,1735,1752,1828,1886,1948,1982,2015,1983,1965,1941,1927,1916,1901,1892,1883,1877,1872,1862,1855,1850,1843,1835,1825,1816,1809,1795,1780,1775,1761,1749,1753,1749,1737,1751,1749,1756,1760,1760,1757,1745,1741,1745,1755,1768,1780,1789,1797,1810,1815,1821,1823,1827,1845,1853,1871,1871,1870,1874,1887,1897,1895,1901,1897,1899,1904,1928,1961,1960,1965,1972,1968,1955,1958,1948,1936,1872,1827,1793,1769,1753,1727,1719,1698,1690,1673,1663,1640,1614,1592,1572,1553,1534,1512,1499,1478,1465,1447,1426,1419,1416,1406,1394,1399,1395,1389,1360,1340,1311,1282,1265,1254,1249,1249,1246,1248,1245,1236,1221,1217,1225,1220,1212,1207,1205,1201,1202,1210,1194,1203,1217,1232,1234,1237,1246,1259,1267,1268,1273,1283,1288,1278,1267,1256,1239,1216,1211,1199,1186,1175,1163,1147,1138,1130,1118,1110,1104,1092,1073,1055,1046,1046,1043,1070,1069,1068,1080,1097,1112,1129,1149,1170,1196,1227,1261,1291,1307,1370,1418,1425,1411,1388,1362,1342,1335,1375,1402,1432,1466,1502,1534,1569,1613,1650,1685,1721,1756,1788,1822,1841,1849,1809,1768,1730,1694
1726,1698,1671,1645,1619,1595,1570,1550,1533,1525,1506,1474,1450,1394,1370,1343,1324,1313,1297,1286,1268,1256,1237,1227,1224,1231,1247,1250,1263,1272,1282,1295,1309,1330,1353,1369,1390,1413,1423,1448,1456,1476,1493,1523,1532,1585,1629,1693,1744,1788,1862,1913,1979,2006,1990,1962,1946,1930,1918,1902,1899,1891,1889,1889,1883,1858,1859,1854,1850,1832,1825,1817,1806,1785,1772,1763,1767,1771,1764,1764,1763,1772,1769,1771,1776,1765,1776,1769,1765,1780,1795,1809,1821,1831,1840,1845,1850,1855,1860,1871,1893,1904,1905,1921,1903,1909,1917,1921,1924,1927,1924,1974,1993,1995,1986,1989,1990,1987,1966,1961,1952,1905,1829,1801,1774,1761,1743,1741,1732,1715,1694,1677,1655,1635,1613,1595,1584,1563,1544,1524,1504,1488,1482,1459,1453,1446,1431,1419,1414,1410,1410,1404,1388,1382,1342,1307,1283,1265,1254,1248,1246,1244,1245,1239,1226,1217,1212,1208,1211,1211,1210,1207,1200,1189,1189,1189,1204,1217,1226,1228,1232,1239,1255,1263,1262,1267,1277,1277,1263,1255,1237,1222,1209,1203,1186,1171,1163,1158,1139,1128,1126,1113,1106,1097,1086,1075,1066,1048,1043,1042,1041,1060,1069,1081,1096,1111,1131,1153,1178,1204,1241,1272,1298,1347,1395,1404,1387,1367,1347,1327,1333,1369,1409,1443,1477,1513,1555,1598,1637,1662,1690,1722,1740,1764,1781,1803,1824,1796,1761,1722,1691
1734,1712,1687,1659,1625,1597,1572,1546,1523,1508,1502,1469,1450,1382,1360,1332,1309,1299,1293,1278,1258,1245,1235,1224,1225,1231,1244,1253,1261,1275,1283,1297,1310,1334,1353,1365,1382,1396,1408,1421,1434,1458,1482,1501,1520,1556,1674,1693,1711,1793,1847,1905,1967,1997,1986,1959,1946,1925,1907,1904,1903,1897,1901,1900,1893,1862,1871,1865,1858,1839,1823,1814,1797,1778,1771,1776,1780,1778,1776,1778,1774,1781,1779,1783,1771,1778,1781,1785,1789,1803,1823,1839,1853,1865,1873,1876,1882,1888,1902,1905,1921,1925,1935,1942,1936,1935,1958,1948,1944,1945,2009,2009,2016,2014,2007,2005,1996,1994,1973,1964,1878,1818,1802,1781,1767,1756,1746,1736,1731,1723,1700,1684,1658,1635,1610,1593,1580,1565,1549,1522,1509,1497,1490,1480,1468,1463,1445,1437,1433,1426,1424,1411,1410,1405,1382,1353,1310,1293,1279,1265,1259,1254,1240,1235,1226,1220,1217,1213,1209,1200,1198,1195,1191,1203,1191,1185,1187,1205,1212,1213,1221,1228,1239,1250,1253,1250,1261,1258,1250,1240,1238,1240,1220,1203,1193,1178,1164,1153,1141,1129,1125,1111,1105,1101,1098,1090,1079,1063,1048,1047,1040,1042,1069,1072,1082,1095,1115,1137,1161,1184,1220,1251,1282,1327,1378,1396,1378,1351,1326,1314,1344,1371,1409,1446,1478,1508,1545,1574,1613,1633,1659,1687,1686,1714,1722,1765,1799,1798,1761,1726,1695
1749,1726,1699,1669,1637,1604,1578,1551,1524,1503,1464,1442,1408,1383,1357,1343,1314,1291,1283,1269,1255,1243,1232,1220,1225,1233,1243,1251,1259,1267,1284,1303,1312,1317,1339,1355,1361,1372,1388,1405,1429,1442,1462,1483,1513,1558,1613,1657,1677,1746,1803,1876,1940,1997,1980,1964,1944,1936,1919,1914,1906,1899,1910,1910,1899,1877,1881,1877,1861,1838,1821,1808,1788,1777,1783,1789,1792,1796,1791,1777,1777,1772,1775,1781,1788,1791,1794,1809,1816,1828,1850,1871,1888,1906,1909,1920,1929,1936,1942,1964,1996,1955,1954,1958,1955,1961,1967,1979,1972,2024,2025,2026,2029,2026,2020,2014,2008,1949,1865,1829,1820,1808,1793,1772,1766,1749,1739,1734,1737,1725,1709,1681,1653,1637,1615,1594,1580,1572,1544,1523,1514,1499,1496,1494,1484,1475,1465,1449,1444,1444,1439,1435,1432,1423,1417,1413,1389,1334,1306,1288,1278,1265,1246,1226,1221,1214,1212,1211,1211,1209,1201,1203,1206,1209,1207,1190,1184,1185,1191,1217,1224,1226,1235,1242,1239,1242,1245,1253,1258,1254,1248,1244,1225,1205,1195,1184,1165,1147,1134,1129,1119,1113,1109,1105,1103,1097,1089,1078,1065,1053,1040,1042,1065,1068,1075,1083,1100,1118,1131,1163,1201,1234,1264,1311,1354,1383,1363,1332,1304,1324,1340,1372,1408,1443,1471,1495,1522,1546,1573,1589,1603,1637,1638,1663,1684,1718,1749,1780,1757,1726,1695
1759,1739,1711,1672,1639,1615,1600,1567,1538,1508,1462,1410,1387,1361,1337,1317,1306,1292,1277,1264,1253,1242,1232,1219,1219,1231,1242,1252,1266,1274,1280,1288,1298,1313,1324,1338,1354,1371,1387,1403,1423,1438,1459,1485,1495,1560,1619,1659,1694,1744,1805,1876,1945,1986,1971,1960,1949,1942,1935,1934,1922,1921,1919,1918,1904,1899,1890,1873,1854,1832,1827,1805,1801,1797,1798,1805,1806,1813,1787,1781,1783,1785,1778,1789,1806,1809,1812,1831,1840,1855,1879,1907,1930,1946,1946,1964,1966,1969,1988,1994,2020,2027,1994,1982,1971,1973,1982,2007,2026,2039,2038,2036,2035,2019,1978,1954,1894,1851,1830,1822,1809,1789,1777,1766,1760,1751,1748,1754,1746,1726,1697,1673,1655,1640,1625,1606,1596,1575,1572,1553,1537,1520,1512,1502,1494,1483,1473,1470,1468,1460,1459,1452,1449,1446,1448,1436,1432,1406,1369,1325,1305,1289,1260,1233,1218,1212,1208,1207,1207,1207,1205,1209,1209,1205,1211,1201,1190,1186,1191,1217,1224,1229,1234,1236,1235,1232,1235,1241,1247,1249,1246,1240,1233,1218,1199,1194,1180,1168,1154,1137,1125,1116,1114,1107,1105,1101,1088,1086,1076,1051,1040,1041,1061,1065,1070,1073,1084,1101,1121,1146,1174,1202,1235,1294,1335,1365,1347,1314,1290,1320,1341,1369,1403,1432,1457,1475,1499,1516,1535,1550,1577,1596,1612,1614,1658,1673,1718,1740,1751,1720,1691
1763,1745,1705,1676,1650,1625,1602,1577,1545,1507,1456,1415,1397,1370,1339,1323,1308,1289,1271,1261,1250,1239,1228,1218,1215,1227,1237,1251,1266,1275,1288,1300,1320,1324,1320,1341,1356,1364,1379,1396,1413,1426,1442,1460,1476,1547,1612,1637,1677,1705,1784,1836,1887,1972,1964,1963,1962,1960,1953,1946,1936,1937,1931,1929,1916,1897,1880,1865,1850,1835,1824,1821,1827,1813,1820,1825,1826,1822,1802,1798,1797,1803,1809,1816,1827,1834,1838,1848,1862,1879,1901,1935,1960,1974,1979,1991,1996,2012,2029,2031,2044,2047,2049,2040,2048,2048,2037,2045,2035,2042,2046,2039,2029,1977,1933,1903,1874,1847,1828,1814,1798,1783,1778,1777,1772,1778,1780,1760,1734,1711,1697,1684,1674,1656,1640,1627,1608,1599,1583,1562,1548,1531,1519,1507,1496,1489,1484,1482,1481,1479,1478,1475,1472,1468,1472,1461,1449,1434,1393,1352,1326,1308,1272,1238,1214,1209,1208,1208,1209,1211,1211,1211,1220,1214,1210,1202,1207,1188,1187,1208,1213,1222,1226,1226,1226,1223,1226,1233,1236,1241,1239,1236,1229,1218,1200,1203,1189,1181,1167,1151,1135,1122,1117,1108,1104,1096,1092,1089,1065,1050,1043,1037,1050,1064,1064,1069,1071,1084,1103,1123,1146,1169,1194,1262,1317,1331,1334,1305,1282,1305,1322,1353,1385,1412,1439,1455,1474,1489,1504,1514,1532,1555,1563,1599,1610,1643,1673,1725,1733,1708,1683
1760,1744,1706,1676,1654,1635,1621,1599,1575,1504,1451,1425,1400,1373,1351,1321,1292,1282,1267,1257,1243,1232,1224,1214,1215,1223,1241,1249,1265,1277,1291,1304,1327,1343,1338,1339,1357,1369,1381,1395,1409,1424,1438,1450,1471,1502,1601,1609,1633,1684,1743,1807,1852,1931,1962,1974,1978,1973,1971,1961,1962,1952,1944,1929,1917,1892,1873,1859,1842,1829,1832,1843,1840,1825,1820,1829,1839,1826,1818,1810,1817,1829,1832,1849,1839,1843,1867,1862,1886,1909,1927,1955,1981,1993,1997,2011,2018,2054,2051,2063,2067,2067,2066,2062,2065,2063,2055,2061,2049,2048,2042,2039,1998,1942,1911,1885,1859,1838,1825,1813,1795,1794,1796,1798,1803,1796,1773,1754,1734,1725,1717,1697,1684,1671,1651,1636,1618,1599,1583,1568,1556,1536,1522,1513,1509,1507,1504,1503,1501,1500,1498,1499,1491,1478,1477,1471,1463,1450,1407,1367,1343,1324,1305,1262,1228,1210,1207,1209,1210,1211,1214,1212,1211,1221,1215,1209,1197,1195,1185,1184,1198,1208,1212,1213,1212,1210,1213,1218,1221,1222,1226,1229,1225,1216,1197,1191,1193,1183,1174,1159,1145,1132,1123,1115,1111,1103,1101,1092,1088,1069,1050,1036,1035,1038,1051,1068,1067,1073,1087,1104,1125,1149,1174,1212,1257,1292,1317,1307,1266,1284,1301,1331,1359,1387,1416,1420,1438,1458,1475,1475,1480,1499,1538,1550,1593,1621,1649,1698,1712,1683,1662
1710,1705,1690,1671,1637,1618,1597,1553,1528,1483,1449,1426,1402,1364,1332,1307,1287,1274,1264,1255,1246,1237,1225,1212,1213,1226,1241,1248,1262,1275,1280,1310,1332,1352,1371,1347,1352,1366,1378,1392,1404,1417,1430,1442,1459,1498,1535,1591,1612,1677,1696,1782,1857,1915,1968,1982,1996,1994,1982,1973,1964,1953,1937,1919,1894,1869,1868,1853,1847,1847,1846,1846,1861,1836,1840,1846,1845,1834,1828,1827,1833,1847,1855,1862,1861,1868,1868,1885,1914,1943,1955,1984,2006,2012,2012,2032,2064,2075,2078,2080,2081,2085,2084,2081,2082,2079,2065,2073,2067,2057,2013,1963,1945,1907,1882,1863,1844,1830,1823,1819,1815,1818,1828,1822,1811,1793,1770,1759,1737,1730,1718,1701,1685,1666,1645,1627,1611,1592,1579,1565,1552,1540,1543,1534,1527,1523,1524,1526,1517,1512,1514,1502,1498,1495,1490,1480,1470,1454,1416,1380,1361,1347,1326,1287,1253,1227,1210,1209,1210,1210,1212,1217,1216,1214,1213,1206,1198,1194,1193,1181,1182,1190,1193,1196,1195,1196,1199,1201,1205,1205,1207,1211,1217,1213,1203,1186,1178,1177,1170,1158,1149,1140,1132,1126,1120,1110,1108,1106,1101,1084,1069,1045,1035,1036,1037,1066,1066,1068,1078,1090,1109,1132,1165,1187,1218,1253,1286,1304,1275,1248,1278,1304,1331,1358,1382,1378,1401,1415,1438,1444,1452,1485,1498,1543,1569,1596,1622,1659,1694,1664,1634
1679,1661,1654,1642,1636,1595,1553,1527,1500,1472,1447,1411,1386,1361,1335,1317,1297,1278,1271,1252,1242,1232,1222,1211,1211,1222,1233,1249,1260,1268,1279,1307,1332,1359,1385,1371,1355,1364,1378,1389,1399,1410,1425,1441,1463,1486,1520,1560,1592,1636,1688,1729,1832,1909,1962,1989,1994,2001,1986,1975,1961,1954,1941,1914,1900,1870,1869,1852,1847,1850,1853,1874,1879,1860,1855,1858,1848,1844,1845,1847,1860,1865,1879,1862,1853,1856,1876,1907,1943,1969,1985,2008,2031,2033,2030,2089,2097,2098,2093,2098,2102,2105,2104,2104,2101,2098,2067,2038,2000,1963,1943,1923,1907,1883,1862,1846,1833,1830,1832,1832,1842,1847,1831,1816,1803,1794,1790,1772,1752,1724,1715,1699,1679,1655,1631,1614,1599,1583,1576,1570,1565,1554,1545,1533,1537,1536,1546,1546,1534,1532,1525,1516,1508,1499,1492,1485,1474,1457,1425,1393,1379,1372,1349,1326,1281,1248,1226,1214,1209,1209,1208,1212,1219,1217,1218,1215,1205,1198,1191,1183,1174,1174,1176,1179,1180,1182,1183,1184,1186,1184,1194,1197,1202,1196,1193,1181,1172,1162,1160,1149,1149,1141,1137,1138,1132,1122,1115,1109,1100,1081,1080,1068,1050,1034,1033,1066,1066,1065,1069,1078,1098,1119,1144,1161,1191,1212,1239,1272,1276,1229,1247,1281,1301,1322,1340,1361,1371,1399,1396,1403,1433,1463,1497,1517,1538,1561,1601,1645,1667,1643,1622
1664,1630,1624,1598,1603,1560,1521,1512,1486,1467,1445,1426,1404,1381,1362,1337,1309,1289,1265,1247,1238,1230,1216,1208,1210,1220,1231,1249,1264,1270,1285,1299,1326,1358,1386,1395,1372,1364,1376,1383,1398,1405,1419,1433,1458,1487,1507,1567,1593,1629,1676,1735,1827,1874,1962,1988,1964,1998,1987,1981,1971,1951,1931,1920,1907,1884,1878,1864,1863,1868,1878,1893,1898,1887,1873,1881,1867,1868,1863,1867,1886,1883,1877,1855,1855,1865,1888,1919,1954,1986,2011,2037,2054,2070,2103,2106,2119,2120,2114,2121,2125,2124,2122,2122,2087,2030,2006,1981,1970,1945,1922,1901,1886,1868,1865,1849,1840,1842,1848,1856,1860,1855,1834,1811,1800,1792,1789,1761,1739,1719,1698,1680,1662,1643,1630,1620,1601,1592,1582,1581,1572,1557,1558,1551,1559,1560,1560,1554,1543,1534,1529,1519,1515,1511,1505,1495,1486,1473,1439,1408,1395,1388,1364,1342,1316,1273,1243,1224,1213,1206,1205,1206,1213,1213,1219,1221,1212,1202,1189,1180,1172,1159,1159,1161,1162,1165,1165,1166,1170,1166,1174,1179,1189,1190,1184,1176,1166,1161,1144,1146,1145,1140,1135,1145,1145,1134,1122,1111,1106,1105,1095,1081,1066,1038,1032,1056,1065,1065,1063,1066,1084,1104,1125,1139,1163,1176,1200,1229,1265,1219,1226,1265,1279,1297,1311,1336,1365,1357,1353,1395,1428,1449,1472,1492,1513,1545,1577,1618,1645,1611,1593
1663,1586,1564,1550,1517,1503,1492,1484,1478,1445,1438,1404,1383,1368,1348,1324,1302,1278,1260,1252,1247,1236,1219,1206,1208,1223,1233,1243,1263,1268,1286,1302,1320,1350,1384,1388,1383,1369,1378,1383,1392,1402,1417,1434,1455,1474,1494,1569,1589,1626,1693,1750,1799,1858,1880,1913,1977,1999,1995,1990,1980,1961,1939,1933,1919,1900,1891,1878,1880,1889,1899,1909,1902,1900,1893,1901,1894,1881,1885,1893,1895,1882,1874,1859,1866,1881,1902,1930,1963,1993,2030,2064,2088,2102,2139,2142,2144,2144,2141,2143,2142,2142,2089,2081,2011,1999,1981,1960,1941,1920,1901,1882,1877,1883,1880,1869,1862,1869,1868,1853,1856,1844,1831,1811,1792,1777,1769,1742,1724,1701,1685,1679,1667,1650,1635,1624,1617,1615,1613,1607,1591,1590,1574,1579,1584,1578,1576,1568,1551,1547,1542,1534,1531,1528,1522,1516,1509,1480,1449,1421,1406,1393,1369,1359,1342,1321,1267,1235,1220,1206,1201,1200,1202,1205,1214,1222,1217,1208,1193,1176,1164,1135,1140,1142,1143,1146,1161,1159,1156,1153,1159,1162,1164,1173,1179,1176,1171,1156,1153,1140,1136,1133,1132,1138,1147,1144,1129,1117,1103,1106,1104,1091,1073,1049,1031,1032,1046,1063,1063,1066,1074,1091,1110,1125,1136,1150,1170,1192,1222,1201,1217,1247,1261,1279,1290,1312,1334,1318,1360,1382,1405,1428,1447,1461,1491,1526,1563,1605,1619,1591,1560
1586,1554,1540,1514,1490,1479,1461,1441,1433,1430,1400,1390,1368,1347,1334,1318,1284,1272,1267,1260,1253,1243,1226,1208,1203,1215,1231,1241,1253,1265,1293,1302,1318,1337,1375,1377,1382,1371,1376,1382,1390,1403,1420,1433,1444,1461,1491,1555,1596,1620,1677,1731,1784,1813,1867,1934,1993,1979,2001,2003,1993,1979,1955,1936,1926,1910,1889,1889,1897,1910,1921,1928,1917,1914,1909,1918,1917,1915,1909,1911,1901,1903,1888,1878,1883,1895,1914,1942,1971,2006,2050,2089,2100,2152,2156,2162,2166,2168,2167,2165,2147,2056,2036,2009,1987,1972,1955,1937,1919,1901,1888,1889,1898,1892,1877,1881,1877,1873,1877,1857,1837,1821,1818,1801,1775,1757,1742,1719,1700,1700,1691,1677,1676,1662,1657,1649,1646,1640,1632,1616,1610,1602,1606,1602,1599,1591,1586,1577,1572,1564,1558,1547,1546,1540,1531,1522,1507,1482,1453,1431,1412,1401,1391,1382,1357,1332,1292,1254,1232,1213,1205,1200,1198,1202,1215,1221,1216,1208,1195,1180,1170,1152,1133,1122,1119,1126,1133,1144,1151,1145,1149,1152,1151,1153,1155,1159,1152,1148,1152,1145,1135,1132,1130,1130,1144,1146,1134,1124,1114,1100,1088,1102,1078,1064,1038,1030,1034,1060,1062,1067,1072,1082,1100,1113,1121,1133,1149,1169,1194,1169,1217,1229,1243,1258,1265,1285,1292,1324,1344,1363,1384,1400,1414,1453,1488,1514,1545,1576,1585,1566,1545
1584,1552,1524,1491,1467,1451,1440,1420,1406,1396,1381,1370,1344,1330,1322,1311,1306,1291,1278,1265,1257,1249,1230,1213,1203,1205,1209,1241,1250,1259,1280,1296,1306,1326,1352,1368,1378,1372,1372,1377,1385,1399,1410,1423,1435,1451,1486,1553,1575,1619,1655,1719,1751,1797,1866,1935,1825,1797,1890,1931,1892,1907,1965,1927,1912,1918,1909,1908,1913,1918,1928,1935,1935,1913,1900,1855,1890,1861,1853,1873,1875,1898,1916,1899,1903,1917,1933,1952,1985,2012,2070,2109,2129,2171,2175,2182,2186,2189,2186,2185,2082,2040,2016,1989,1963,1946,1933,1921,1910,1910,1913,1910,1910,1910,1896,1892,1879,1863,1853,1842,1817,1799,1780,1774,1751,1734,1719,1705,1697,1694,1696,1700,1696,1684,1685,1674,1661,1662,1645,1626,1632,1632,1623,1618,1610,1603,1597,1588,1589,1587,1576,1565,1557,1541,1523,1504,1496,1477,1451,1438,1428,1418,1405,1389,1368,1337,1306,1275,1246,1224,1211,1200,1194,1193,1199,1215,1207,1200,1189,1180,1172,1162,1160,1154,1135,1115,1119,1125,1128,1137,1145,1143,1140,1135,1137,1140,1146,1143,1140,1136,1133,1130,1126,1126,1126,1134,1133,1126,1119,1111,1096,1084,1076,1071,1065,1033,1031,1055,1059,1070,1073,1079,1093,1104,1118,1126,1134,1150,1166,1172,1194,1206,1230,1231,1245,1269,1292,1310,1327,1346,1363,1373,1410,1440,1469,1490,1527,1551,1545,1538,1521
1573,1555,1507,1470,1451,1433,1423,1409,1388,1375,1362,1346,1333,1320,1305,1298,1287,1276,1263,1252,1247,1245,1227,1214,1206,1203,1208,1215,1236,1255,1279,1291,1302,1319,1342,1363,1370,1367,1367,1367,1378,1391,1400,1418,1438,1464,1478,1508,1598,1629,1653,1692,1748,1783,1818,1794,1742,1734,1747,1762,1801,1889,1963,1923,1827,1861,1868,1858,1846,1898,1858,1916,1859,1826,1816,1808,1820,1780,1785,1783,1811,1825,1869,1905,1933,1950,1961,1976,1998,2001,2065,2076,2114,2192,2194,2199,2203,2204,2202,2099,2047,2020,1998,1974,1956,1938,1933,1920,1929,1930,1933,1925,1924,1930,1910,1889,1878,1859,1847,1826,1806,1780,1761,1739,1730,1717,1703,1696,1708,1720,1723,1720,1711,1699,1696,1690,1684,1671,1655,1656,1656,1643,1632,1622,1619,1616,1610,1610,1604,1590,1581,1571,1556,1535,1517,1502,1487,1475,1457,1442,1428,1415,1399,1383,1369,1345,1318,1291,1263,1238,1218,1204,1196,1192,1194,1196,1202,1196,1192,1184,1176,1166,1158,1150,1138,1133,1116,1109,1108,1110,1124,1130,1133,1133,1124,1120,1124,1131,1131,1127,1128,1125,1123,1121,1120,1119,1125,1121,1115,1109,1107,1092,1076,1069,1064,1028,1049,1051,1061,1065,1071,1075,1087,1098,1108,1118,1131,1133,1145,1167,1182,1189,1217,1228,1242,1257,1276,1296,1312,1326,1340,1368,1394,1419,1446,1473,1511,1530,1513,1504,1499
1570,1548,1510,1474,1455,1430,1423,1419,1400,1378,1363,1349,1330,1314,1305,1286,1277,1268,1251,1244,1239,1231,1223,1216,1214,1200,1210,1215,1221,1238,1266,1280,1292,1311,1336,1357,1364,1362,1354,1361,1364,1384,1401,1420,1428,1455,1462,1484,1536,1615,1650,1671,1716,1761,1741,1699,1705,1700,1712,1729,1772,1826,1820,1823,1791,1774,1777,1773,1768,1777,1773,1794,1778,1768,1767,1767,1757,1743,1750,1749,1802,1790,1833,1829,1849,1893,1895,1894,1921,1926,1989,2025,2066,2122,2211,2214,2211,2214,2102,2049,2030,2003,1987,1959,1948,1939,1942,1946,1956,1952,1936,1927,1922,1917,1909,1893,1869,1848,1825,1795,1779,1772,1746,1732,1721,1712,1718,1729,1742,1741,1737,1732,1724,1713,1707,1697,1687,1679,1677,1678,1666,1660,1648,1643,1641,1633,1618,1614,1604,1589,1582,1569,1552,1540,1524,1507,1489,1473,1456,1441,1422,1412,1394,1385,1375,1355,1334,1307,1280,1254,1230,1212,1204,1204,1200,1196,1193,1198,1203,1188,1177,1167,1156,1150,1133,1126,1120,1111,1107,1106,1104,1108,1116,1117,1117,1115,1114,1117,1128,1125,1120,1117,1120,1116,1113,1111,1109,1106,1107,1106,1100,1095,1077,1068,1058,1025,1051,1053,1063,1065,1071,1076,1083,1090,1100,1117,1125,1139,1148,1162,1176,1188,1206,1215,1225,1238,1258,1281,1291,1311,1334,1355,1373,1395,1421,1453,1493,1510,1503,1475,1466
1558,1551,1517,1476,1467,1433,1423,1412,1396,1385,1369,1361,1331,1314,1315,1298,1283,1265,1253,1243,1234,1224,1219,1220,1216,1197,1205,1218,1231,1236,1256,1274,1289,1302,1334,1351,1351,1348,1339,1352,1362,1378,1389,1394,1414,1430,1455,1478,1511,1576,1626,1670,1681,1694,1691,1657,1667,1665,1680,1674,1697,1722,1745,1732,1713,1731,1731,1727,1725,1740,1749,1724,1737,1735,1736,1730,1720,1713,1716,1719,1711,1724,1729,1750,1764,1794,1884,1847,1883,1920,1953,1998,2051,2099,2186,2230,2164,2120,2080,2043,2011,1985,1961,1946,1941,1950,1966,1953,1961,1962,1938,1921,1914,1901,1887,1869,1858,1832,1800,1787,1771,1757,1755,1739,1745,1744,1753,1772,1763,1760,1753,1744,1731,1729,1718,1707,1689,1699,1698,1690,1682,1674,1669,1658,1636,1634,1619,1610,1603,1588,1573,1567,1549,1536,1523,1504,1482,1463,1449,1436,1420,1405,1395,1384,1370,1354,1337,1318,1298,1274,1245,1227,1210,1202,1194,1187,1181,1179,1186,1186,1180,1175,1167,1161,1149,1142,1134,1124,1119,1115,1109,1105,1103,1099,1107,1111,1114,1113,1118,1120,1126,1120,1113,1110,1106,1103,1101,1100,1101,1099,1097,1090,1078,1068,1060,1036,1035,1052,1058,1065,1070,1074,1081,1092,1103,1110,1116,1129,1144,1156,1171,1184,1196,1205,1210,1223,1242,1260,1288,1302,1309,1340,1356,1372,1400,1429,1468,1485,1477,1456,1430
1561,1551,1523,1483,1466,1446,1425,1404,1395,1365,1354,1341,1333,1330,1321,1314,1302,1277,1262,1250,1240,1230,1216,1206,1204,1191,1205,1209,1227,1239,1256,1275,1273,1283,1300,1322,1335,1332,1330,1333,1354,1357,1370,1389,1408,1437,1448,1468,1484,1511,1576,1623,1636,1640,1619,1622,1634,1638,1643,1636,1615,1639,1658,1678,1672,1700,1700,1685,1689,1693,1736,1690,1702,1701,1704,1699,1684,1685,1687,1694,1692,1704,1723,1742,1763,1786,1815,1839,1865,1932,1950,1963,2023,2079,2092,2106,2116,2109,2076,2038,2005,1980,1963,1960,1970,1979,1966,1961,1965,1958,1950,1925,1899,1876,1855,1859,1844,1814,1803,1820,1814,1822,1805,1790,1790,1790,1796,1783,1783,1782,1780,1761,1757,1740,1734,1720,1730,1722,1712,1700,1685,1673,1667,1654,1643,1630,1622,1618,1602,1592,1582,1562,1541,1524,1513,1489,1468,1457,1447,1435,1421,1409,1395,1379,1372,1350,1330,1319,1288,1267,1242,1226,1205,1195,1185,1178,1173,1170,1167,1167,1174,1170,1157,1151,1145,1138,1134,1125,1117,1115,1114,1105,1102,1103,1102,1098,1106,1109,1111,1119,1126,1127,1121,1114,1108,1108,1108,1098,1094,1094,1091,1084,1075,1067,1058,1041,1028,1057,1062,1065,1068,1073,1082,1092,1099,1103,1120,1131,1140,1151,1169,1181,1188,1190,1199,1212,1226,1243,1274,1297,1308,1319,1340,1355,1380,1408,1435,1460,1449,1432,1417
1579,1563,1525,1494,1473,1457,1433,1413,1392,1375,1360,1349,1337,1335,1328,1317,1309,1291,1272,1261,1247,1234,1223,1210,1200,1191,1197,1200,1209,1229,1244,1240,1250,1263,1279,1297,1315,1320,1313,1323,1329,1342,1365,1396,1414,1425,1428,1450,1466,1480,1499,1553,1578,1525,1547,1579,1605,1610,1611,1606,1596,1605,1617,1617,1636,1649,1651,1651,1652,1637,1652,1664,1670,1669,1673,1670,1662,1660,1663,1673,1681,1695,1715,1733,1753,1775,1798,1818,1835,1871,1892,1938,2001,2040,2046,2056,2117,2101,2068,2033,2001,1983,1976,1986,2000,1996,1982,1964,1944,1940,1936,1915,1905,1900,1884,1874,1865,1860,1860,1851,1838,1836,1819,1809,1806,1811,1812,1803,1807,1794,1788,1777,1763,1746,1751,1749,1736,1727,1721,1705,1689,1686,1674,1662,1648,1650,1635,1618,1603,1592,1575,1556,1537,1528,1509,1487,1476,1463,1452,1440,1423,1408,1393,1375,1356,1340,1332,1324,1307,1264,1244,1234,1200,1188,1187,1180,1174,1169,1161,1157,1161,1158,1150,1145,1141,1136,1131,1128,1120,1118,1114,1115,1102,1101,1101,1100,1098,1104,1111,1115,1121,1126,1128,1122,1112,1104,1106,1104,1099,1080,1075,1071,1069,1065,1056,1036,1040,1058,1061,1063,1066,1073,1081,1088,1091,1100,1115,1125,1133,1153,1169,1173,1180,1181,1190,1202,1210,1222,1254,1289,1304,1311,1323,1342,1363,1391,1409,1432,1429,1410,1386
1574,1571,1536,1505,1490,1467,1446,1412,1386,1371,1362,1349,1342,1338,1327,1316,1308,1291,1277,1269,1256,1242,1229,1217,1206,1194,1185,1191,1209,1224,1226,1228,1237,1246,1260,1273,1287,1294,1303,1313,1324,1334,1366,1381,1396,1411,1419,1427,1449,1460,1474,1492,1500,1524,1552,1567,1576,1581,1581,1577,1571,1577,1587,1597,1612,1622,1625,1627,1629,1619,1625,1637,1642,1641,1644,1643,1640,1640,1651,1656,1669,1685,1702,1720,1741,1761,1781,1804,1828,1856,1880,1928,1956,1991,2014,2058,2121,2094,2062,2032,2008,2008,2006,2029,2023,2012,1991,1973,1956,1943,1936,1932,1911,1902,1899,1886,1882,1868,1861,1860,1856,1848,1837,1831,1838,1838,1820,1808,1808,1803,1794,1786,1779,1773,1762,1751,1741,1740,1730,1716,1701,1690,1687,1681,1660,1646,1631,1617,1605,1592,1571,1552,1548,1525,1509,1494,1482,1466,1452,1436,1417,1402,1387,1365,1355,1350,1331,1313,1298,1283,1241,1229,1198,1178,1174,1171,1172,1172,1167,1160,1150,1146,1142,1139,1134,1129,1125,1121,1116,1114,1112,1111,1107,1103,1099,1098,1098,1097,1099,1108,1116,1122,1127,1129,1123,1112,1100,1099,1099,1089,1084,1068,1064,1063,1056,1036,1038,1059,1060,1062,1061,1069,1075,1080,1086,1097,1108,1118,1126,1152,1158,1165,1172,1176,1183,1192,1199,1204,1229,1265,1291,1299,1309,1328,1351,1378,1397,1413,1412,1396,1374
1574,1544,1521,1508,1481,1461,1436,1422,1411,1389,1371,1353,1347,1338,1325,1316,1305,1293,1282,1270,1257,1242,1232,1221,1214,1197,1183,1180,1196,1207,1221,1220,1228,1241,1254,1267,1279,1293,1300,1304,1312,1331,1361,1371,1387,1395,1404,1416,1432,1443,1457,1467,1483,1502,1522,1537,1548,1553,1553,1550,1548,1552,1564,1576,1586,1593,1597,1603,1603,1599,1605,1614,1621,1618,1618,1617,1623,1631,1638,1651,1662,1679,1694,1713,1731,1755,1772,1794,1817,1849,1876,1901,1940,1958,2022,2062,2109,2082,2055,2031,2025,2027,2013,2020,2015,2000,1978,1970,1981,1963,1951,1941,1920,1908,1900,1894,1889,1874,1876,1867,1867,1866,1852,1852,1859,1845,1823,1818,1822,1813,1800,1804,1787,1775,1766,1756,1753,1746,1735,1720,1709,1703,1696,1677,1661,1644,1630,1620,1608,1592,1573,1553,1536,1528,1515,1502,1487,1469,1448,1428,1412,1395,1383,1367,1366,1344,1323,1308,1292,1285,1248,1216,1202,1180,1164,1159,1160,1162,1164,1165,1158,1149,1141,1136,1132,1127,1125,1126,1127,1122,1118,1112,1111,1104,1100,1102,1099,1098,1096,1094,1104,1113,1121,1127,1128,1124,1114,1100,1094,1093,1087,1070,1066,1054,1055,1032,1036,1033,1043,1050,1058,1068,1070,1077,1085,1093,1102,1110,1116,1141,1152,1157,1166,1171,1175,1183,1190,1192,1208,1232,1272,1286,1294,1308,1332,1359,1385,1400,1400,1390,1371
1554,1532,1510,1483,1466,1448,1425,1410,1392,1381,1371,1358,1350,1338,1327,1317,1305,1288,1282,1270,1258,1246,1233,1219,1210,1196,1178,1179,1186,1198,1202,1217,1239,1235,1243,1260,1271,1281,1292,1289,1300,1317,1333,1354,1368,1384,1394,1405,1416,1430,1438,1457,1464,1481,1498,1513,1524,1525,1525,1525,1529,1534,1545,1555,1562,1569,1576,1583,1583,1583,1590,1598,1611,1601,1600,1606,1613,1624,1634,1646,1661,1678,1694,1711,1728,1749,1766,1791,1816,1840,1863,1895,1923,1972,2013,2083,2098,2085,2061,2038,2028,2018,2003,2007,2006,1990,1976,1959,1958,1955,1945,1932,1925,1917,1905,1899,1895,1894,1881,1892,1891,1877,1871,1871,1865,1855,1838,1828,1829,1808,1803,1801,1800,1787,1787,1771,1759,1749,1741,1727,1718,1706,1692,1677,1658,1639,1627,1616,1605,1589,1588,1575,1551,1527,1511,1497,1481,1468,1439,1424,1418,1398,1388,1378,1361,1341,1325,1306,1293,1273,1255,1239,1206,1182,1167,1155,1151,1151,1150,1156,1157,1151,1144,1136,1132,1132,1133,1131,1131,1137,1137,1130,1113,1111,1108,1102,1102,1097,1096,1095,1095,1096,1108,1118,1124,1126,1122,1106,1100,1092,1082,1068,1065,1063,1047,1029,1028,1054,1059,1063,1061,1065,1071,1075,1083,1091,1098,1102,1108,1126,1135,1145,1153,1162,1167,1173,1182,1185,1194,1205,1238,1256,1272,1285,1313,1337,1365,1389,1390,1378,1359
1557,1527,1506,1485,1452,1446,1428,1408,1398,1398,1388,1380,1374,1354,1326,1311,1298,1281,1276,1266,1256,1241,1226,1212,1203,1190,1178,1177,1184,1190,1198,1211,1216,1221,1228,1240,1251,1266,1270,1291,1302,1303,1334,1350,1364,1377,1389,1396,1398,1413,1429,1442,1445,1461,1476,1492,1499,1499,1500,1503,1510,1517,1525,1533,1539,1550,1571,1571,1572,1574,1582,1592,1596,1589,1592,1605,1612,1624,1636,1649,1658,1674,1692,1705,1723,1742,1763,1780,1802,1823,1860,1883,1931,1985,2038,2065,2080,2073,2062,2051,2035,2008,1992,1993,1991,1976,1973,1957,1950,1952,1946,1939,1936,1934,1925,1910,1917,1911,1901,1899,1896,1887,1877,1867,1858,1863,1842,1839,1829,1834,1816,1807,1803,1804,1790,1774,1759,1759,1750,1734,1720,1706,1693,1678,1660,1646,1630,1622,1617,1600,1585,1571,1552,1522,1508,1494,1479,1469,1456,1440,1419,1409,1390,1371,1360,1339,1319,1300,1288,1282,1264,1261,1242,1195,1166,1155,1151,1153,1150,1145,1148,1146,1141,1142,1142,1140,1147,1143,1151,1150,1144,1137,1127,1128,1124,1118,1115,1110,1112,1108,1104,1098,1092,1097,1107,1119,1120,1115,1106,1095,1083,1082,1071,1062,1051,1024,1030,1050,1055,1057,1061,1064,1070,1075,1080,1085,1093,1099,1101,1121,1125,1132,1136,1152,1158,1165,1175,1183,1190,1198,1207,1224,1246,1264,1290,1314,1339,1356,1372,1365,1344
1586,1562,1558,1530,1480,1456,1456,1449,1413,1389,1382,1375,1367,1370,1328,1300,1290,1279,1272,1260,1246,1230,1213,1200,1188,1181,1172,1178,1187,1199,1213,1206,1220,1227,1244,1247,1264,1272,1283,1301,1310,1321,1324,1335,1342,1366,1381,1374,1384,1400,1412,1423,1429,1445,1459,1475,1474,1473,1476,1484,1492,1499,1506,1516,1531,1554,1565,1576,1575,1570,1581,1594,1594,1581,1590,1602,1611,1622,1638,1647,1657,1674,1690,1706,1724,1738,1754,1768,1844,1858,1882,1901,1945,1997,2023,2038,2059,2055,2077,2061,2034,2009,2000,1991,1991,1974,1963,1957,1958,1960,1957,1958,1938,1933,1938,1928,1921,1905,1891,1898,1901,1892,1883,1865,1865,1870,1855,1860,1853,1838,1817,1815,1816,1807,1789,1774,1769,1754,1745,1732,1720,1710,1701,1685,1667,1665,1642,1621,1609,1599,1585,1559,1536,1524,1511,1497,1486,1464,1450,1435,1419,1403,1387,1372,1355,1332,1312,1294,1289,1279,1267,1257,1248,1233,1191,1170,1162,1161,1156,1147,1141,1142,1141,1142,1149,1150,1150,1153,1146,1154,1153,1145,1136,1136,1137,1132,1123,1115,1121,1121,1108,1100,1095,1093,1091,1103,1112,1116,1113,1101,1083,1082,1076,1068,1051,1023,1028,1048,1055,1058,1061,1064,1068,1075,1078,1080,1090,1096,1094,1111,1121,1107,1122,1135,1143,1149,1161,1177,1188,1198,1204,1209,1224,1244,1268,1297,1310,1319,1343,1350,1325
1673,1643,1581,1530,1491,1458,1450,1448,1441,1412,1396,1381,1364,1355,1338,1315,1303,1289,1266,1250,1240,1231,1215,1197,1181,1173,1168,1180,1190,1208,1220,1229,1231,1245,1254,1265,1262,1281,1304,1308,1312,1328,1344,1358,1370,1358,1365,1384,1387,1385,1390,1404,1419,1432,1443,1449,1447,1448,1454,1468,1478,1486,1494,1510,1526,1539,1555,1562,1563,1570,1578,1573,1576,1592,1601,1604,1613,1628,1639,1648,1660,1674,1687,1702,1714,1731,1746,1788,1873,1903,1910,1948,1969,1999,2008,2016,2031,2032,2046,2065,2043,2026,2014,2002,1994,1981,1969,1960,1969,1982,1974,1956,1939,1928,1929,1924,1916,1901,1905,1900,1904,1903,1886,1878,1872,1864,1870,1860,1856,1837,1831,1831,1819,1805,1797,1785,1770,1752,1744,1731,1720,1706,1693,1683,1677,1657,1636,1622,1603,1589,1572,1569,1547,1526,1504,1495,1476,1463,1449,1432,1411,1395,1379,1362,1342,1337,1330,1319,1301,1284,1266,1260,1254,1245,1232,1201,1173,1168,1161,1149,1141,1141,1141,1141,1142,1145,1149,1151,1147,1141,1138,1138,1135,1134,1125,1103,1106,1107,1106,1127,1117,1104,1094,1092,1090,1096,1105,1111,1113,1107,1090,1080,1079,1072,1047,1018,1024,1038,1055,1059,1063,1068,1068,1070,1079,1081,1083,1086,1091,1094,1096,1099,1109,1121,1130,1136,1145,1162,1179,1190,1196,1199,1199,1223,1251,1280,1289,1299,1325,1338,1307
1688,1621,1570,1523,1486,1453,1424,1428,1444,1425,1425,1416,1401,1389,1369,1337,1311,1288,1261,1234,1223,1218,1207,1193,1174,1167,1171,1185,1197,1211,1224,1233,1239,1255,1266,1271,1275,1277,1308,1317,1320,1338,1353,1373,1399,1389,1396,1401,1402,1403,1406,1408,1408,1420,1428,1430,1436,1451,1459,1459,1466,1473,1496,1516,1526,1546,1559,1567,1554,1560,1555,1586,1594,1605,1596,1606,1620,1627,1639,1651,1664,1679,1692,1707,1715,1730,1755,1851,1897,1913,1953,1975,2012,2009,2007,2003,2010,2019,2031,2041,2043,2023,2006,1996,1995,1997,1977,1982,1965,1963,1970,1960,1948,1943,1929,1915,1907,1914,1912,1907,1908,1897,1887,1886,1883,1866,1858,1869,1852,1846,1843,1838,1828,1810,1788,1787,1771,1765,1748,1732,1720,1700,1690,1673,1656,1642,1632,1611,1595,1590,1577,1558,1541,1523,1520,1502,1481,1466,1442,1422,1402,1387,1372,1363,1352,1343,1333,1318,1299,1286,1278,1274,1265,1253,1244,1229,1194,1185,1170,1154,1145,1142,1143,1143,1143,1143,1143,1145,1153,1133,1132,1122,1114,1112,1116,1116,1105,1098,1096,1085,1106,1105,1096,1090,1089,1092,1098,1104,1109,1110,1105,1087,1078,1071,1040,1017,1021,1020,1056,1061,1061,1066,1066,1070,1078,1082,1083,1083,1085,1090,1097,1099,1100,1113,1122,1130,1133,1144,1165,1176,1183,1187,1186,1203,1229,1252,1269,1281,1299,1312,1282
1671,1625,1557,1513,1480,1452,1427,1406,1410,1400,1407,1417,1403,1382,1361,1338,1310,1281,1262,1236,1208,1204,1198,1192,1169,1165,1172,1183,1194,1213,1224,1237,1250,1261,1266,1278,1282,1295,1309,1306,1314,1341,1354,1375,1411,1416,1414,1416,1417,1418,1419,1420,1421,1420,1422,1431,1442,1453,1460,1465,1475,1477,1483,1503,1521,1541,1553,1535,1546,1558,1568,1576,1587,1603,1610,1609,1617,1627,1641,1652,1665,1680,1697,1712,1731,1746,1839,1865,1891,1933,1980,2013,2033,2027,2016,2009,2013,2011,2020,2021,2023,2022,2014,2001,1984,1982,1988,1982,1968,1974,1974,1970,1955,1939,1937,1923,1923,1918,1913,1914,1907,1898,1898,1878,1869,1877,1871,1856,1850,1845,1842,1826,1817,1815,1808,1785,1770,1757,1744,1726,1711,1699,1684,1677,1666,1649,1631,1616,1603,1590,1586,1575,1559,1537,1516,1491,1468,1449,1431,1413,1394,1389,1377,1360,1345,1339,1325,1312,1309,1299,1295,1289,1279,1273,1258,1251,1226,1216,1213,1178,1160,1151,1149,1148,1148,1146,1146,1145,1140,1141,1147,1149,1141,1130,1142,1141,1142,1123,1111,1099,1079,1079,1094,1087,1080,1088,1092,1098,1104,1109,1110,1101,1084,1068,1036,1017,1020,1020,1054,1060,1061,1062,1065,1068,1077,1082,1083,1083,1084,1086,1090,1096,1096,1107,1117,1123,1127,1131,1143,1155,1162,1173,1180,1190,1207,1229,1249,1266,1280,1282,1247
1612,1576,1541,1508,1474,1449,1426,1407,1389,1391,1388,1395,1380,1357,1336,1332,1313,1281,1267,1251,1215,1189,1184,1180,1165,1163,1178,1196,1204,1214,1229,1249,1254,1269,1279,1291,1291,1304,1308,1317,1326,1330,1344,1377,1404,1427,1434,1434,1436,1435,1433,1431,1431,1431,1433,1433,1438,1446,1455,1467,1485,1495,1512,1507,1503,1513,1521,1536,1551,1561,1571,1576,1592,1598,1603,1612,1621,1632,1639,1650,1663,1677,1695,1717,1739,1787,1838,1858,1894,1952,1986,2048,2039,2031,2029,2021,2010,1998,1998,2002,2001,2011,2003,1990,1973,1969,1965,1973,1966,1966,1970,1955,1960,1943,1930,1937,1924,1913,1909,1900,1898,1901,1891,1889,1883,1877,1876,1860,1864,1850,1832,1824,1822,1812,1796,1781,1767,1761,1745,1727,1721,1715,1702,1689,1675,1660,1646,1621,1616,1601,1586,1570,1550,1526,1503,1482,1458,1439,1421,1407,1398,1386,1375,1356,1345,1336,1337,1336,1326,1307,1302,1292,1279,1272,1272,1263,1250,1232,1231,1217,1196,1168,1158,1155,1152,1150,1149,1148,1146,1153,1150,1157,1156,1149,1157,1157,1169,1153,1134,1119,1109,1096,1071,1072,1076,1078,1084,1090,1096,1101,1104,1100,1086,1052,1028,1017,1016,1042,1060,1060,1061,1064,1066,1068,1071,1078,1081,1081,1087,1087,1087,1088,1091,1098,1110,1119,1122,1129,1130,1145,1152,1157,1164,1177,1192,1211,1231,1250,1264,1258,1218
1629,1620,1537,1497,1467,1444,1421,1402,1387,1377,1372,1379,1364,1336,1322,1319,1301,1270,1255,1241,1223,1198,1177,1163,1161,1168,1182,1200,1215,1229,1239,1250,1257,1267,1277,1290,1303,1302,1307,1317,1327,1344,1354,1357,1374,1392,1428,1448,1455,1450,1448,1447,1444,1441,1444,1446,1448,1454,1462,1474,1489,1496,1507,1518,1527,1538,1545,1551,1559,1565,1577,1588,1593,1593,1602,1611,1617,1626,1635,1649,1664,1679,1704,1771,1785,1836,1809,1852,1883,1932,1980,2048,2028,2025,2027,2022,2006,1993,1986,1986,1987,2002,1990,1975,1970,1972,1960,1961,1959,1966,1963,1957,1960,1945,1942,1933,1921,1901,1893,1897,1891,1890,1886,1892,1886,1882,1865,1862,1851,1842,1847,1834,1816,1805,1792,1790,1767,1754,1753,1738,1718,1703,1688,1676,1666,1652,1644,1628,1617,1599,1581,1564,1543,1516,1506,1487,1476,1458,1443,1420,1398,1392,1378,1363,1355,1349,1348,1339,1332,1314,1307,1297,1286,1282,1279,1271,1260,1245,1243,1234,1225,1204,1176,1167,1161,1156,1154,1150,1150,1154,1154,1155,1165,1161,1167,1167,1167,1161,1150,1139,1128,1119,1101,1088,1075,1068,1078,1083,1088,1093,1098,1096,1089,1066,1029,1015,1015,1016,1049,1060,1044,1053,1063,1069,1072,1076,1078,1081,1085,1087,1081,1088,1089,1097,1109,1116,1118,1124,1120,1132,1138,1142,1150,1164,1179,1195,1212,1230,1246,1237,1200
1621,1644,1596,1514,1473,1442,1413,1393,1379,1369,1367,1362,1357,1329,1303,1301,1289,1268,1244,1232,1224,1197,1172,1159,1169,1175,1187,1202,1217,1231,1242,1261,1266,1269,1278,1288,1300,1309,1313,1319,1330,1343,1355,1368,1378,1395,1420,1428,1446,1455,1458,1460,1465,1465,1472,1468,1467,1473,1470,1494,1495,1509,1509,1518,1530,1535,1540,1553,1562,1565,1569,1587,1588,1592,1602,1604,1613,1625,1636,1657,1673,1697,1737,1795,1835,1820,1843,1855,1895,1937,1992,2030,2013,2013,2011,2003,1997,1991,1981,1973,1980,1987,1980,1966,1956,1956,1964,1959,1951,1955,1965,1955,1956,1947,1939,1917,1902,1896,1904,1897,1906,1901,1899,1894,1892,1884,1866,1848,1850,1842,1832,1819,1805,1790,1778,1764,1768,1758,1740,1725,1707,1694,1684,1673,1663,1652,1637,1627,1610,1591,1574,1561,1550,1529,1507,1484,1467,1454,1431,1400,1394,1384,1374,1374,1366,1357,1348,1339,1331,1323,1317,1309,1300,1292,1287,1278,1266,1250,1250,1244,1230,1213,1197,1185,1177,1168,1163,1158,1152,1154,1153,1159,1168,1170,1171,1172,1172,1169,1165,1154,1141,1128,1110,1095,1082,1057,1063,1081,1082,1086,1091,1093,1090,1077,1050,1031,1034,1015,1021,1014,1013,1025,1057,1066,1070,1073,1074,1074,1083,1079,1077,1088,1098,1099,1106,1112,1112,1119,1117,1125,1128,1131,1139,1152,1165,1180,1195,1210,1231,1228,1187
1649,1635,1547,1499,1470,1444,1416,1390,1369,1362,1355,1346,1339,1320,1296,1288,1274,1258,1240,1219,1208,1185,1160,1164,1174,1183,1195,1207,1221,1234,1248,1267,1276,1277,1282,1290,1305,1316,1320,1328,1339,1354,1368,1376,1388,1396,1430,1455,1453,1452,1451,1462,1465,1467,1468,1473,1484,1488,1498,1492,1491,1501,1515,1519,1528,1544,1544,1549,1554,1559,1567,1575,1587,1585,1597,1609,1619,1629,1648,1675,1717,1806,1785,1836,1845,1851,1881,1890,1925,1959,2033,2026,2015,2010,1997,1989,1986,1983,1980,1977,1975,1974,1970,1958,1947,1943,1950,1953,1951,1943,1949,1947,1945,1939,1928,1919,1909,1912,1910,1918,1918,1913,1904,1899,1894,1883,1866,1862,1848,1834,1821,1808,1796,1783,1785,1767,1754,1746,1737,1733,1717,1707,1694,1667,1656,1640,1627,1613,1606,1599,1581,1566,1542,1513,1487,1465,1448,1432,1415,1412,1405,1398,1381,1372,1369,1360,1354,1351,1348,1343,1330,1319,1306,1301,1294,1285,1276,1264,1257,1248,1239,1231,1222,1209,1198,1183,1173,1168,1161,1159,1161,1154,1162,1172,1175,1175,1173,1169,1161,1157,1148,1135,1114,1099,1082,1052,1068,1075,1077,1081,1085,1089,1089,1085,1080,1073,1062,1036,1010,1011,1010,1005,1033,1063,1060,1068,1063,1066,1070,1064,1087,1088,1093,1103,1104,1101,1112,1112,1115,1120,1120,1125,1133,1142,1152,1165,1181,1193,1210,1200,1171
1610,1562,1518,1487,1466,1444,1417,1391,1367,1354,1344,1334,1322,1305,1282,1275,1245,1233,1219,1206,1190,1165,1152,1166,1178,1188,1202,1213,1225,1236,1251,1265,1275,1282,1289,1297,1312,1325,1330,1336,1357,1370,1375,1390,1404,1419,1439,1464,1467,1469,1462,1457,1460,1465,1470,1478,1479,1486,1500,1503,1501,1507,1511,1516,1528,1536,1547,1555,1558,1564,1566,1571,1586,1595,1612,1619,1624,1640,1670,1764,1793,1797,1817,1831,1868,1903,1911,1929,1943,2016,2016,2008,1998,1991,1983,1976,1972,1973,1974,1972,1969,1964,1960,1952,1943,1938,1939,1939,1941,1940,1938,1936,1935,1927,1924,1922,1931,1931,1933,1927,1923,1916,1904,1891,1889,1878,1872,1851,1835,1820,1810,1806,1798,1787,1771,1754,1751,1746,1732,1726,1712,1700,1681,1670,1651,1645,1624,1617,1600,1586,1567,1544,1518,1490,1468,1463,1452,1441,1440,1434,1423,1410,1390,1381,1375,1372,1369,1363,1358,1348,1336,1321,1319,1309,1300,1293,1287,1278,1268,1259,1250,1238,1236,1230,1218,1200,1189,1184,1176,1169,1165,1167,1168,1169,1174,1176,1172,1168,1172,1172,1161,1143,1114,1095,1074,1045,1062,1067,1071,1075,1080,1085,1088,1086,1083,1080,1077,1068,1039,1030,1033,1009,1017,1049,1055,1057,1057,1070,1055,1071,1084,1087,1084,1087,1089,1104,1109,1103,1113,1115,1110,1112,1121,1133,1146,1158,1168,1172,1170,1168,1172
1547,1544,1507,1481,1456,1437,1417,1406,1377,1354,1335,1322,1301,1290,1278,1253,1230,1211,1199,1187,1179,1155,1154,1174,1182,1193,1207,1223,1231,1241,1250,1262,1274,1286,1299,1307,1320,1331,1336,1341,1350,1369,1386,1393,1416,1441,1443,1474,1483,1484,1484,1479,1474,1468,1474,1480,1482,1483,1491,1501,1503,1508,1513,1519,1526,1530,1536,1544,1550,1556,1577,1586,1606,1634,1638,1639,1641,1671,1695,1782,1771,1817,1825,1851,1880,1908,1930,1963,2013,2022,1997,1990,1983,1978,1973,1970,1966,1963,1963,1962,1958,1956,1953,1947,1941,1939,1936,1939,1946,1949,1948,1936,1921,1925,1934,1945,1946,1936,1938,1929,1927,1913,1896,1887,1874,1864,1852,1846,1832,1835,1817,1814,1803,1786,1774,1755,1740,1728,1720,1710,1713,1694,1676,1660,1640,1619,1609,1606,1593,1568,1549,1523,1507,1490,1475,1469,1460,1451,1442,1432,1420,1406,1394,1385,1383,1379,1379,1369,1351,1343,1346,1340,1330,1317,1307,1300,1293,1284,1272,1261,1252,1245,1242,1236,1227,1217,1210,1208,1211,1196,1192,1191,1183,1180,1174,1175,1171,1172,1181,1171,1159,1138,1111,1086,1065,1041,1060,1061,1065,1069,1074,1081,1087,1086,1082,1079,1076,1071,1065,1062,1051,1028,1002,1030,1055,1057,1050,1052,1054,1075,1080,1081,1081,1082,1090,1103,1101,1102,1106,1110,1113,1109,1107,1120,1135,1150,1144,1132,1138,1155,1174
1525,1544,1490,1466,1444,1435,1426,1405,1369,1333,1317,1310,1294,1275,1258,1243,1220,1206,1194,1181,1172,1144,1159,1174,1184,1197,1209,1215,1228,1247,1259,1270,1276,1291,1307,1317,1321,1329,1340,1348,1358,1369,1385,1408,1429,1446,1461,1483,1493,1496,1497,1492,1487,1484,1483,1482,1484,1487,1490,1497,1503,1508,1512,1517,1524,1530,1540,1545,1556,1577,1601,1620,1692,1709,1691,1664,1712,1739,1730,1773,1785,1805,1833,1859,1889,1918,1949,2002,2024,2010,1987,1978,1977,1971,1968,1968,1967,1960,1954,1953,1950,1950,1947,1945,1946,1949,1946,1940,1942,1940,1940,1931,1930,1945,1952,1950,1934,1925,1920,1918,1909,1900,1890,1876,1871,1863,1859,1832,1818,1817,1815,1797,1791,1770,1756,1741,1727,1719,1709,1697,1690,1681,1662,1647,1628,1605,1602,1588,1569,1550,1540,1527,1504,1486,1473,1464,1458,1450,1439,1428,1417,1404,1403,1397,1392,1384,1377,1370,1373,1369,1361,1353,1337,1324,1313,1305,1298,1287,1275,1267,1262,1254,1251,1247,1241,1234,1231,1232,1235,1228,1220,1216,1207,1202,1187,1183,1178,1182,1172,1157,1138,1118,1097,1074,1057,1037,1044,1057,1059,1061,1067,1074,1082,1086,1085,1081,1077,1072,1068,1064,1062,1044,1010,996,1011,1021,1025,1045,1051,1071,1075,1075,1077,1078,1084,1093,1096,1097,1101,1101,1101,1101,1095,1105,1121,1115,1116,1141,1159,1179,1205
1510,1529,1468,1445,1428,1417,1421,1391,1360,1331,1323,1313,1297,1278,1258,1233,1208,1191,1191,1174,1171,1140,1159,1164,1181,1196,1212,1222,1229,1245,1250,1263,1275,1287,1302,1319,1327,1334,1345,1359,1368,1378,1386,1402,1433,1446,1457,1487,1502,1507,1506,1501,1500,1496,1491,1490,1492,1497,1496,1501,1503,1507,1516,1528,1541,1544,1561,1572,1588,1608,1646,1702,1731,1734,1709,1694,1730,1758,1776,1755,1791,1815,1841,1873,1903,1936,1988,2005,2003,1989,1988,1987,1977,1967,1962,1961,1961,1962,1957,1959,1952,1947,1942,1943,1949,1955,1955,1945,1948,1948,1938,1934,1941,1942,1931,1926,1916,1914,1903,1902,1897,1889,1883,1875,1857,1851,1830,1818,1816,1814,1798,1781,1768,1762,1740,1726,1714,1706,1695,1682,1665,1663,1644,1636,1626,1614,1592,1572,1561,1543,1529,1507,1493,1479,1468,1468,1464,1449,1439,1430,1422,1414,1402,1393,1387,1380,1378,1376,1376,1369,1362,1352,1341,1328,1319,1310,1301,1289,1279,1276,1270,1267,1266,1264,1263,1259,1258,1262,1266,1265,1257,1249,1229,1221,1211,1205,1194,1172,1150,1133,1113,1095,1078,1062,1057,1028,1038,1054,1052,1053,1058,1065,1074,1083,1085,1083,1080,1075,1069,1064,1061,1044,1026,1022,1008,997,992,1013,1050,1060,1069,1071,1074,1078,1083,1088,1091,1091,1091,1089,1091,1086,1093,1102,1109,1102,1134,1160,1178,1199,1220
1499,1531,1470,1435,1413,1407,1406,1374,1352,1326,1319,1307,1287,1263,1239,1213,1191,1183,1180,1176,1163,1142,1145,1158,1178,1195,1214,1230,1241,1251,1263,1277,1286,1292,1304,1315,1331,1340,1347,1354,1368,1375,1396,1415,1429,1443,1457,1479,1502,1514,1514,1509,1505,1506,1505,1506,1506,1511,1516,1517,1514,1517,1528,1535,1543,1565,1580,1615,1697,1698,1699,1698,1741,1760,1743,1725,1736,1767,1790,1786,1800,1820,1850,1887,1924,1977,1994,1986,1985,1982,1977,1979,1970,1960,1955,1955,1955,1956,1961,1960,1953,1942,1940,1943,1948,1954,1956,1953,1951,1946,1936,1938,1931,1932,1940,1923,1916,1915,1901,1887,1878,1881,1869,1864,1872,1843,1819,1811,1812,1801,1780,1768,1756,1745,1727,1715,1699,1688,1673,1662,1654,1638,1633,1622,1608,1591,1575,1558,1549,1532,1525,1508,1494,1487,1482,1476,1466,1450,1443,1430,1420,1408,1396,1389,1386,1383,1381,1377,1373,1370,1363,1349,1339,1329,1324,1317,1307,1297,1295,1289,1283,1281,1282,1280,1278,1279,1281,1284,1284,1277,1266,1262,1257,1249,1230,1210,1189,1166,1134,1109,1088,1072,1063,1058,1051,1024,1024,1046,1042,1045,1049,1055,1064,1074,1080,1082,1081,1076,1070,1063,1059,1056,1053,1054,1055,1028,998,992,1037,1051,1057,1064,1068,1071,1081,1087,1089,1088,1085,1084,1081,1081,1081,1085,1084,1116,1146,1166,1188,1206,1221
1488,1537,1476,1434,1400,1395,1383,1360,1338,1322,1320,1299,1278,1250,1221,1201,1186,1184,1179,1173,1156,1136,1142,1163,1185,1198,1211,1224,1242,1261,1273,1282,1302,1314,1324,1335,1340,1342,1350,1357,1370,1381,1401,1418,1435,1453,1467,1486,1512,1524,1530,1524,1521,1521,1523,1523,1522,1524,1528,1532,1537,1539,1545,1562,1579,1611,1627,1645,1677,1683,1701,1717,1745,1770,1784,1754,1766,1790,1813,1824,1824,1839,1873,1904,1974,1983,1979,1973,1965,1969,1963,1961,1956,1950,1949,1949,1951,1953,1956,1957,1956,1949,1944,1943,1946,1946,1943,1937,1938,1948,1949,1942,1951,1947,1937,1928,1926,1911,1893,1890,1871,1856,1856,1854,1860,1836,1812,1799,1787,1775,1767,1757,1741,1726,1712,1698,1679,1664,1658,1658,1649,1639,1641,1622,1597,1577,1568,1554,1543,1536,1534,1528,1522,1507,1489,1472,1462,1448,1438,1425,1417,1406,1404,1398,1392,1385,1380,1374,1370,1367,1355,1351,1341,1337,1333,1334,1330,1321,1316,1312,1306,1300,1299,1298,1296,1296,1296,1296,1292,1284,1272,1264,1259,1249,1231,1216,1191,1163,1131,1105,1080,1066,1062,1055,1045,1032,1020,1032,1029,1030,1036,1043,1053,1064,1072,1076,1077,1075,1070,1061,1058,1057,1055,1053,1050,1042,1002,991,1033,1045,1044,1061,1062,1063,1073,1080,1086,1086,1085,1081,1074,1074,1072,1072,1101,1119,1148,1165,1188,1207,1216
1478,1526,1499,1423,1391,1381,1365,1341,1323,1323,1316,1293,1273,1249,1220,1208,1192,1186,1180,1166,1137,1139,1153,1172,1185,1196,1212,1222,1241,1253,1265,1298,1317,1323,1332,1342,1353,1362,1367,1372,1382,1400,1413,1435,1456,1483,1482,1505,1542,1549,1541,1539,1535,1534,1535,1538,1542,1546,1544,1549,1557,1580,1601,1604,1652,1634,1655,1670,1671,1681,1698,1727,1753,1781,1807,1796,1801,1812,1833,1848,1855,1870,1895,1942,1969,1962,1950,1942,1956,1960,1952,1947,1943,1940,1942,1943,1946,1954,1958,1960,1959,1959,1956,1950,1943,1941,1937,1930,1937,1933,1933,1944,1941,1934,1924,1924,1911,1893,1882,1872,1861,1857,1839,1835,1828,1824,1803,1776,1766,1766,1744,1740,1723,1700,1694,1679,1665,1657,1659,1668,1655,1644,1637,1611,1603,1595,1569,1556,1547,1553,1548,1534,1513,1491,1469,1459,1451,1439,1435,1433,1427,1422,1417,1409,1404,1393,1387,1386,1381,1374,1369,1367,1355,1356,1360,1364,1353,1344,1338,1334,1328,1321,1315,1313,1310,1308,1307,1301,1294,1286,1273,1264,1255,1246,1231,1212,1187,1155,1123,1096,1071,1054,1056,1059,1052,1039,1016,1018,1017,1022,1025,1029,1040,1051,1060,1067,1071,1072,1067,1063,1060,1058,1055,1052,1047,1041,1001,995,1009,986,996,1044,1052,1060,1068,1072,1077,1081,1082,1077,1067,1056,1076,1089,1096,1118,1138,1159,1183,1203,1213
1485,1528,1525,1416,1369,1360,1341,1324,1323,1319,1308,1283,1263,1244,1223,1208,1192,1184,1165,1150,1126,1137,1157,1176,1187,1201,1225,1231,1243,1251,1277,1304,1318,1329,1338,1347,1351,1352,1369,1383,1398,1418,1446,1467,1487,1502,1505,1518,1556,1551,1553,1557,1557,1551,1552,1559,1563,1577,1581,1611,1642,1637,1633,1628,1632,1644,1650,1663,1677,1688,1709,1734,1763,1789,1826,1832,1839,1882,1909,1922,1890,1940,1947,1950,1945,1952,1936,1940,1942,1939,1938,1931,1936,1936,1934,1936,1942,1956,1965,1970,1970,1965,1957,1950,1940,1939,1941,1931,1924,1921,1920,1924,1928,1927,1915,1905,1903,1888,1869,1865,1840,1847,1830,1810,1807,1811,1790,1774,1750,1747,1741,1721,1702,1681,1671,1665,1665,1677,1664,1655,1659,1643,1624,1607,1587,1576,1563,1566,1554,1554,1541,1517,1495,1485,1481,1473,1466,1461,1459,1455,1448,1440,1439,1435,1430,1419,1408,1405,1396,1386,1378,1379,1388,1388,1378,1371,1366,1361,1358,1352,1344,1336,1329,1325,1320,1316,1314,1305,1295,1289,1280,1264,1252,1241,1225,1203,1175,1142,1112,1085,1068,1053,1041,1044,1049,1036,1026,1018,1015,1020,1020,1022,1030,1041,1049,1057,1061,1065,1065,1063,1062,1059,1056,1053,1048,1040,1010,985,985,1001,982,1008,1055,1062,1066,1066,1068,1072,1075,1068,1042,1070,1078,1083,1088,1107,1128,1150,1171,1192,1210
1486,1499,1515,1379,1350,1337,1323,1310,1301,1296,1285,1267,1249,1236,1222,1206,1183,1176,1158,1134,1125,1138,1159,1173,1186,1194,1219,1237,1246,1261,1276,1289,1312,1323,1336,1350,1354,1358,1366,1383,1401,1420,1453,1468,1489,1512,1536,1543,1567,1572,1576,1582,1574,1591,1595,1645,1647,1644,1628,1616,1611,1610,1607,1608,1624,1630,1649,1664,1686,1709,1724,1752,1781,1807,1835,1876,1922,1925,1927,1929,1928,1930,1931,1927,1934,1937,1931,1928,1927,1927,1927,1930,1930,1930,1926,1931,1944,1954,1961,1964,1964,1960,1950,1939,1937,1936,1939,1934,1931,1924,1919,1918,1921,1909,1900,1892,1892,1881,1873,1852,1838,1832,1824,1812,1788,1774,1756,1745,1741,1729,1712,1697,1686,1674,1674,1682,1672,1667,1654,1650,1629,1607,1594,1584,1571,1568,1564,1554,1541,1530,1522,1514,1511,1510,1509,1502,1494,1489,1485,1480,1476,1468,1462,1455,1448,1439,1428,1424,1420,1415,1407,1413,1399,1393,1390,1386,1383,1378,1374,1366,1356,1347,1338,1334,1328,1322,1317,1308,1295,1287,1280,1268,1249,1234,1215,1190,1162,1131,1103,1082,1064,1054,1045,1039,1048,1043,1030,1014,1014,1018,1019,1019,1021,1027,1039,1052,1055,1056,1061,1064,1064,1060,1057,1053,1049,1042,1031,1011,1013,1020,985,989,1037,1058,1061,1060,1061,1063,1065,1062,1036,1070,1073,1076,1078,1095,1119,1139,1158,1182,1205
1440,1481,1473,1364,1345,1327,1312,1299,1285,1273,1260,1244,1232,1221,1213,1201,1178,1167,1154,1134,1119,1144,1160,1171,1179,1188,1207,1220,1238,1260,1280,1294,1311,1323,1339,1367,1370,1368,1377,1386,1408,1428,1455,1473,1503,1539,1570,1591,1593,1602,1637,1636,1644,1616,1610,1600,1595,1591,1585,1581,1585,1588,1593,1604,1620,1636,1654,1672,1700,1731,1754,1772,1793,1827,1860,1877,1885,1893,1906,1908,1909,1914,1912,1916,1921,1926,1916,1914,1921,1925,1923,1921,1922,1930,1928,1932,1941,1951,1957,1962,1961,1954,1946,1937,1938,1939,1934,1929,1940,1938,1922,1913,1912,1904,1908,1887,1892,1883,1866,1846,1828,1819,1806,1787,1770,1762,1742,1735,1712,1702,1689,1685,1676,1661,1660,1645,1634,1632,1622,1611,1602,1595,1592,1583,1591,1595,1589,1575,1559,1551,1543,1536,1537,1533,1527,1520,1513,1507,1502,1496,1489,1482,1476,1468,1461,1450,1443,1444,1443,1433,1425,1419,1414,1409,1406,1404,1399,1391,1385,1384,1376,1360,1347,1341,1334,1327,1320,1310,1302,1289,1280,1270,1248,1221,1195,1171,1144,1120,1095,1078,1066,1066,1054,1044,1031,1024,1023,1016,1012,1014,1017,1017,1019,1022,1032,1032,1036,1041,1047,1059,1064,1060,1056,1054,1050,1043,1039,1036,1036,1037,993,982,1007,1035,1051,1052,1057,1057,1056,1039,1031,1072,1067,1074,1077,1085,1111,1132,1152,1171,1183
1409,1458,1412,1365,1342,1317,1301,1286,1267,1250,1236,1224,1214,1203,1198,1187,1169,1156,1149,1124,1117,1143,1162,1173,1186,1201,1214,1230,1244,1265,1283,1292,1302,1325,1355,1378,1386,1388,1386,1402,1420,1446,1486,1518,1544,1579,1599,1577,1581,1572,1573,1577,1566,1565,1565,1557,1553,1553,1556,1556,1562,1576,1593,1608,1624,1645,1668,1691,1718,1751,1775,1799,1821,1833,1841,1849,1856,1870,1885,1889,1891,1896,1897,1904,1909,1912,1919,1918,1915,1915,1922,1913,1927,1926,1929,1933,1940,1951,1957,1954,1947,1940,1940,1939,1939,1935,1925,1924,1931,1926,1914,1917,1905,1898,1895,1888,1880,1867,1848,1827,1813,1800,1787,1771,1764,1748,1736,1714,1692,1685,1668,1667,1668,1654,1640,1632,1634,1636,1618,1610,1610,1605,1598,1618,1614,1615,1605,1596,1587,1576,1568,1560,1554,1548,1542,1535,1527,1520,1514,1507,1499,1491,1486,1481,1476,1470,1469,1460,1448,1444,1442,1435,1429,1427,1421,1416,1413,1405,1403,1400,1387,1372,1357,1349,1344,1336,1326,1314,1302,1296,1284,1269,1248,1223,1195,1168,1144,1117,1097,1084,1072,1066,1052,1053,1045,1041,1029,1025,1017,1018,1010,1012,1013,1009,1011,1026,1026,1026,1029,1039,1050,1056,1056,1056,1051,1042,1037,1031,1037,1034,999,980,986,1007,1026,1042,1049,1054,1037,1016,1051,1055,1059,1072,1077,1088,1098,1119,1138,1157,1181
1384,1415,1371,1356,1334,1304,1279,1267,1250,1233,1225,1204,1194,1190,1184,1170,1153,1140,1139,1125,1111,1137,1156,1166,1180,1201,1220,1238,1251,1262,1278,1288,1299,1324,1362,1384,1395,1401,1401,1410,1461,1508,1533,1559,1587,1597,1562,1534,1521,1512,1512,1513,1517,1525,1525,1524,1525,1529,1539,1544,1561,1579,1599,1618,1639,1662,1688,1712,1734,1778,1803,1813,1808,1809,1817,1830,1833,1852,1868,1874,1873,1886,1885,1895,1903,1912,1920,1919,1920,1922,1930,1930,1943,1941,1934,1935,1942,1944,1947,1941,1931,1929,1936,1938,1932,1923,1914,1916,1922,1918,1912,1903,1898,1894,1889,1875,1863,1844,1829,1814,1798,1783,1769,1759,1744,1724,1710,1699,1687,1679,1654,1655,1645,1636,1631,1651,1646,1626,1614,1611,1615,1626,1627,1628,1633,1631,1620,1615,1610,1599,1590,1579,1569,1562,1555,1548,1541,1534,1527,1519,1509,1500,1497,1496,1495,1494,1480,1474,1473,1469,1462,1453,1444,1440,1434,1428,1420,1414,1411,1403,1393,1379,1363,1353,1350,1341,1329,1317,1309,1291,1287,1263,1242,1217,1191,1166,1144,1121,1106,1080,1083,1068,1060,1059,1048,1047,1033,1032,1035,1031,1018,1010,1009,1007,1009,1018,1007,996,1028,1015,1017,1048,1052,1043,1051,1012,992,990,1009,1001,985,983,978,984,990,1011,1020,1016,1004,1033,1055,1063,1069,1071,1078,1087,1096,1107,1120,1144,1162
1358,1375,1356,1344,1326,1299,1272,1250,1244,1233,1222,1210,1195,1173,1166,1151,1135,1125,1118,1122,1101,1123,1145,1154,1166,1182,1206,1231,1255,1269,1285,1298,1314,1334,1361,1380,1405,1413,1420,1438,1507,1543,1570,1593,1595,1561,1532,1508,1492,1482,1478,1483,1495,1500,1498,1505,1514,1524,1542,1560,1573,1590,1610,1634,1660,1684,1707,1735,1780,1787,1793,1787,1785,1788,1791,1805,1813,1838,1858,1866,1876,1879,1877,1887,1896,1902,1911,1918,1921,1921,1927,1936,1943,1940,1931,1928,1932,1927,1928,1927,1932,1935,1930,1929,1926,1917,1910,1911,1917,1909,1897,1891,1900,1877,1877,1861,1840,1824,1820,1804,1790,1780,1773,1744,1734,1716,1694,1670,1660,1667,1669,1669,1655,1635,1652,1652,1636,1638,1637,1634,1633,1629,1632,1646,1646,1633,1634,1635,1630,1619,1607,1590,1583,1578,1574,1566,1556,1548,1539,1529,1515,1509,1511,1511,1509,1502,1495,1493,1491,1484,1476,1468,1460,1452,1444,1438,1428,1419,1412,1405,1396,1383,1367,1357,1349,1341,1331,1318,1307,1290,1274,1257,1232,1210,1185,1160,1137,1121,1103,1101,1091,1074,1068,1063,1058,1052,1045,1036,1045,1037,1029,1019,1014,1013,1020,997,997,1009,995,995,994,1015,1014,1001,1020,993,992,995,986,985,994,1002,999,978,976,986,985,996,1030,1054,1060,1063,1066,1070,1076,1086,1094,1096,1113,1133,1149
1355,1353,1346,1337,1318,1291,1267,1249,1236,1226,1214,1199,1186,1172,1158,1145,1137,1120,1113,1113,1096,1118,1133,1145,1157,1173,1203,1235,1258,1278,1304,1317,1332,1353,1380,1404,1423,1435,1446,1488,1526,1575,1602,1613,1556,1535,1506,1485,1465,1456,1454,1468,1484,1475,1496,1516,1530,1542,1560,1578,1594,1609,1626,1649,1680,1717,1744,1779,1798,1792,1779,1773,1776,1780,1784,1796,1809,1825,1848,1861,1858,1871,1881,1881,1884,1892,1904,1910,1914,1915,1917,1923,1929,1930,1922,1916,1925,1915,1906,1909,1924,1927,1918,1916,1920,1924,1914,1910,1911,1897,1883,1893,1880,1862,1852,1839,1822,1820,1811,1800,1801,1781,1751,1725,1712,1695,1677,1684,1686,1685,1688,1679,1650,1654,1657,1633,1630,1648,1646,1653,1654,1653,1649,1649,1655,1660,1656,1650,1639,1628,1612,1604,1599,1594,1588,1576,1567,1557,1544,1539,1533,1526,1527,1526,1518,1510,1508,1507,1502,1494,1487,1480,1472,1463,1452,1443,1434,1422,1413,1404,1396,1383,1369,1358,1349,1342,1333,1323,1312,1294,1267,1249,1230,1207,1178,1159,1145,1132,1118,1117,1101,1082,1077,1071,1065,1058,1049,1046,1046,1043,1041,1029,1017,1013,1027,1013,1013,1029,1014,1015,1014,993,989,998,987,990,1009,1037,1023,1025,1032,1029,1013,992,979,983,1002,1012,1044,1054,1060,1064,1064,1067,1069,1079,1083,1089,1092,1122,1141
1346,1340,1335,1327,1309,1276,1254,1243,1229,1216,1202,1186,1172,1164,1155,1144,1130,1115,1102,1093,1111,1111,1122,1135,1156,1193,1219,1261,1293,1313,1344,1367,1383,1389,1405,1433,1448,1463,1479,1498,1540,1590,1621,1576,1538,1506,1480,1459,1445,1433,1435,1432,1459,1497,1519,1539,1555,1568,1583,1599,1615,1630,1652,1679,1712,1747,1760,1776,1801,1774,1766,1769,1783,1783,1788,1794,1803,1818,1847,1842,1845,1862,1876,1881,1886,1892,1893,1897,1902,1906,1905,1908,1913,1910,1905,1908,1922,1904,1887,1895,1908,1907,1901,1900,1904,1912,1903,1897,1899,1893,1879,1871,1866,1853,1836,1827,1820,1814,1805,1790,1772,1750,1738,1719,1703,1689,1691,1694,1699,1695,1688,1663,1673,1667,1647,1649,1649,1661,1655,1666,1671,1673,1672,1676,1667,1674,1668,1663,1646,1632,1624,1616,1608,1603,1596,1584,1572,1563,1555,1553,1549,1546,1542,1537,1529,1523,1520,1518,1513,1505,1498,1491,1484,1472,1459,1446,1436,1427,1415,1406,1396,1383,1370,1357,1347,1337,1326,1319,1312,1305,1283,1255,1234,1211,1185,1173,1162,1145,1140,1122,1107,1102,1093,1086,1070,1062,1059,1053,1050,1046,1046,1037,1021,1016,1028,1033,1028,1033,1044,1046,1047,1010,1011,1027,1015,1016,1032,1051,1060,1055,1047,1033,1030,1014,997,978,1024,1048,1051,1058,1059,1065,1066,1064,1067,1075,1075,1080,1092,1110,1123
1337,1331,1322,1316,1307,1294,1280,1262,1231,1200,1180,1171,1156,1148,1146,1137,1121,1108,1101,1088,1095,1108,1117,1135,1166,1230,1284,1337,1358,1370,1391,1413,1429,1437,1442,1452,1470,1490,1509,1532,1566,1609,1590,1548,1515,1488,1462,1441,1424,1413,1421,1452,1483,1513,1540,1564,1589,1609,1618,1631,1642,1658,1682,1713,1730,1735,1747,1771,1762,1756,1754,1772,1787,1786,1785,1796,1801,1818,1828,1826,1839,1851,1863,1873,1878,1880,1881,1885,1890,1895,1898,1898,1899,1896,1892,1897,1909,1890,1873,1888,1903,1900,1892,1888,1889,1896,1893,1891,1897,1896,1880,1866,1856,1845,1833,1820,1819,1792,1774,1762,1751,1737,1729,1717,1704,1715,1705,1706,1708,1695,1685,1695,1688,1671,1683,1677,1682,1695,1677,1689,1693,1697,1696,1689,1680,1668,1672,1663,1650,1636,1626,1615,1605,1602,1601,1592,1580,1575,1569,1567,1565,1560,1556,1551,1543,1536,1529,1527,1522,1515,1509,1501,1493,1480,1466,1454,1444,1435,1424,1415,1404,1391,1376,1362,1348,1336,1323,1312,1302,1294,1278,1264,1235,1218,1194,1185,1177,1172,1147,1135,1128,1114,1103,1091,1076,1065,1057,1054,1051,1051,1040,1038,1038,1020,1038,1039,1036,1038,1043,1049,1055,1047,1041,1061,1046,1040,1064,1057,1066,1062,1059,1051,1040,1030,1015,974,1006,1045,1029,1024,1020,1025,1033,1057,1065,1062,1064,1076,1090,1102,1108
1331,1329,1313,1290,1274,1264,1262,1257,1223,1172,1147,1142,1133,1128,1128,1124,1114,1107,1088,1077,1090,1112,1130,1161,1229,1275,1286,1309,1336,1363,1392,1424,1455,1480,1486,1505,1516,1538,1546,1565,1597,1621,1570,1535,1496,1465,1445,1424,1403,1403,1435,1461,1492,1536,1580,1619,1653,1671,1695,1706,1688,1707,1708,1719,1722,1731,1738,1758,1756,1747,1750,1765,1784,1788,1793,1807,1807,1805,1813,1819,1827,1844,1859,1862,1867,1869,1871,1874,1875,1880,1891,1887,1887,1886,1881,1885,1896,1884,1873,1884,1894,1896,1895,1887,1877,1881,1891,1897,1898,1890,1877,1858,1846,1833,1827,1812,1796,1771,1762,1755,1743,1736,1723,1716,1724,1722,1721,1716,1706,1710,1717,1698,1690,1714,1716,1706,1713,1700,1704,1711,1721,1720,1713,1702,1689,1669,1662,1657,1649,1640,1631,1619,1607,1606,1609,1600,1590,1588,1581,1574,1571,1572,1569,1564,1558,1549,1541,1536,1532,1525,1519,1509,1499,1487,1476,1466,1456,1449,1440,1429,1417,1403,1387,1372,1356,1342,1333,1324,1311,1298,1282,1260,1241,1223,1206,1201,1204,1199,1181,1158,1139,1125,1113,1103,1089,1075,1061,1052,1048,1048,1055,1052,1045,1030,1043,1044,1045,1047,1050,1057,1063,1066,1072,1079,1079,1074,1077,1073,1068,1066,1063,1063,1056,1043,1025,979,972,984,990,989,987,985,992,1011,1036,1057,1060,1062,1081,1094,1100
1326,1325,1319,1305,1268,1237,1211,1201,1169,1144,1124,1116,1110,1106,1108,1106,1101,1095,1088,1074,1099,1120,1157,1189,1214,1240,1275,1313,1343,1372,1404,1437,1468,1495,1529,1556,1583,1613,1622,1628,1621,1586,1551,1524,1481,1451,1424,1406,1389,1410,1443,1475,1506,1545,1631,1671,1681,1690,1695,1698,1696,1695,1699,1721,1729,1737,1745,1755,1762,1764,1750,1764,1777,1777,1781,1801,1807,1792,1800,1807,1826,1840,1850,1852,1856,1860,1867,1868,1870,1881,1884,1882,1879,1875,1872,1877,1878,1883,1876,1877,1881,1883,1887,1887,1872,1872,1891,1899,1891,1878,1863,1844,1834,1818,1811,1796,1783,1770,1780,1771,1751,1737,1724,1730,1733,1722,1726,1732,1730,1731,1722,1714,1730,1744,1747,1741,1741,1746,1744,1731,1725,1716,1707,1698,1696,1681,1669,1661,1654,1650,1643,1634,1624,1619,1617,1609,1600,1599,1592,1582,1577,1578,1578,1575,1570,1562,1553,1548,1541,1533,1526,1516,1507,1497,1488,1483,1475,1467,1458,1444,1430,1415,1399,1384,1369,1354,1350,1343,1334,1318,1295,1276,1256,1240,1231,1226,1212,1188,1172,1157,1136,1120,1104,1090,1083,1076,1065,1061,1060,1061,1063,1064,1057,1040,1059,1059,1064,1062,1064,1069,1075,1080,1084,1089,1098,1096,1092,1087,1076,1068,1062,1063,1057,1057,1040,1022,972,969,972,972,970,968,965,975,994,1012,1033,1054,1065,1081,1089
1319,1314,1298,1280,1251,1219,1190,1167,1141,1120,1105,1094,1093,1088,1091,1093,1091,1086,1076,1076,1102,1131,1151,1176,1210,1239,1276,1317,1351,1384,1416,1450,1486,1522,1557,1591,1597,1600,1623,1629,1646,1593,1536,1497,1467,1436,1408,1387,1384,1416,1450,1484,1520,1561,1632,1660,1668,1676,1678,1672,1668,1667,1674,1691,1707,1720,1730,1740,1745,1750,1749,1747,1763,1778,1781,1779,1793,1788,1793,1800,1815,1826,1834,1844,1851,1857,1865,1854,1860,1872,1870,1866,1862,1862,1859,1861,1867,1876,1872,1866,1865,1866,1870,1874,1868,1868,1883,1887,1875,1859,1850,1835,1824,1811,1802,1787,1783,1785,1771,1760,1732,1728,1737,1740,1730,1744,1753,1741,1740,1744,1761,1759,1771,1772,1772,1764,1763,1764,1757,1746,1738,1733,1724,1711,1702,1691,1682,1674,1667,1664,1659,1653,1645,1638,1631,1622,1615,1613,1606,1594,1587,1584,1583,1583,1579,1572,1565,1558,1549,1541,1535,1527,1521,1510,1504,1503,1495,1487,1475,1457,1440,1425,1408,1395,1380,1360,1347,1337,1332,1323,1297,1281,1266,1253,1238,1211,1195,1184,1171,1140,1127,1110,1101,1091,1075,1072,1070,1070,1071,1071,1074,1076,1079,1068,1086,1078,1082,1082,1085,1090,1093,1099,1102,1106,1111,1112,1108,1103,1095,1080,1069,1068,1065,1063,1060,1039,1005,984,978,974,975,981,975,963,968,978,1001,1042,1055,1066,1076
1295,1290,1271,1249,1226,1198,1172,1147,1121,1102,1087,1079,1077,1076,1082,1087,1082,1076,1059,1076,1098,1119,1152,1183,1210,1233,1265,1301,1342,1387,1430,1467,1508,1551,1593,1559,1552,1565,1577,1573,1568,1560,1547,1479,1451,1420,1396,1374,1386,1421,1454,1490,1530,1568,1624,1645,1659,1670,1664,1646,1647,1652,1659,1670,1682,1695,1709,1722,1734,1733,1746,1750,1755,1763,1761,1773,1773,1779,1785,1789,1803,1815,1812,1836,1838,1841,1834,1838,1850,1855,1855,1854,1853,1852,1848,1844,1851,1854,1853,1850,1848,1847,1850,1856,1854,1855,1864,1864,1856,1847,1841,1831,1819,1807,1801,1796,1788,1777,1754,1744,1745,1747,1748,1759,1760,1767,1762,1752,1770,1787,1787,1789,1789,1778,1780,1769,1763,1752,1757,1760,1748,1747,1738,1723,1710,1702,1695,1690,1683,1678,1673,1669,1664,1656,1647,1637,1632,1631,1624,1612,1602,1597,1592,1589,1584,1577,1570,1563,1557,1550,1543,1536,1527,1518,1512,1509,1499,1489,1482,1463,1445,1427,1409,1393,1379,1359,1344,1332,1322,1310,1293,1265,1246,1233,1221,1200,1176,1164,1152,1134,1116,1101,1093,1082,1083,1082,1082,1086,1088,1089,1093,1097,1101,1098,1106,1101,1103,1104,1106,1114,1118,1123,1129,1132,1132,1129,1122,1118,1114,1098,1079,1072,1068,1065,1062,1059,1023,1021,1019,1022,1015,995,974,967,962,967,979,1008,1044,1056,1064
1262,1257,1240,1217,1196,1175,1151,1129,1104,1083,1071,1067,1066,1069,1076,1077,1072,1056,1055,1076,1094,1122,1149,1174,1197,1223,1257,1292,1318,1343,1376,1476,1528,1514,1515,1499,1508,1515,1522,1527,1526,1522,1507,1452,1429,1405,1383,1365,1391,1424,1460,1499,1538,1576,1607,1627,1645,1656,1656,1627,1635,1639,1649,1653,1665,1676,1690,1702,1713,1722,1728,1735,1742,1746,1750,1752,1761,1764,1766,1777,1796,1792,1799,1807,1818,1812,1818,1833,1840,1843,1841,1843,1842,1845,1841,1838,1840,1840,1836,1833,1832,1827,1826,1834,1832,1833,1844,1845,1841,1842,1838,1824,1814,1806,1799,1790,1777,1757,1769,1769,1758,1768,1778,1781,1771,1777,1778,1792,1802,1804,1800,1799,1805,1807,1795,1787,1776,1785,1777,1769,1757,1756,1744,1733,1725,1719,1706,1708,1700,1694,1688,1684,1680,1673,1665,1656,1650,1649,1643,1633,1623,1617,1613,1606,1597,1586,1579,1573,1568,1560,1552,1543,1531,1521,1512,1505,1494,1486,1481,1465,1445,1424,1402,1383,1369,1356,1342,1325,1308,1294,1279,1252,1228,1213,1201,1185,1171,1159,1144,1132,1107,1092,1085,1088,1092,1093,1100,1103,1109,1111,1115,1119,1122,1117,1123,1123,1125,1123,1126,1138,1143,1147,1151,1150,1147,1143,1135,1129,1124,1110,1092,1078,1071,1066,1062,1061,1058,1057,1058,1058,1041,1002,988,976,961,962,965,987,1033,1050,1059
1232,1225,1207,1188,1171,1151,1129,1107,1087,1070,1059,1055,1061,1067,1065,1061,1054,1051,1053,1078,1098,1119,1139,1167,1196,1218,1242,1268,1290,1311,1336,1402,1440,1443,1447,1453,1461,1469,1475,1476,1475,1471,1457,1420,1404,1383,1361,1362,1391,1427,1468,1513,1549,1575,1592,1609,1619,1628,1612,1612,1615,1634,1641,1647,1652,1662,1672,1679,1680,1691,1708,1724,1732,1733,1736,1743,1748,1754,1759,1775,1780,1776,1792,1783,1786,1790,1816,1824,1831,1834,1836,1833,1833,1836,1835,1829,1827,1825,1814,1819,1820,1813,1810,1814,1814,1817,1827,1829,1831,1839,1840,1825,1816,1807,1797,1785,1770,1778,1770,1777,1782,1787,1794,1794,1793,1802,1810,1818,1822,1823,1822,1823,1816,1806,1811,1812,1804,1806,1805,1790,1780,1777,1769,1749,1745,1746,1733,1731,1719,1712,1703,1699,1697,1692,1684,1676,1670,1667,1662,1654,1646,1640,1634,1627,1615,1603,1597,1592,1585,1576,1567,1557,1544,1529,1515,1505,1494,1486,1477,1462,1443,1421,1397,1378,1365,1354,1340,1319,1298,1282,1265,1237,1214,1197,1182,1169,1156,1143,1131,1117,1111,1111,1110,1099,1105,1108,1114,1126,1132,1139,1139,1147,1153,1145,1145,1148,1152,1157,1150,1161,1165,1165,1166,1164,1157,1153,1146,1138,1130,1118,1101,1086,1072,1065,1061,1062,1061,1058,1047,1053,1051,1025,1014,993,977,963,959,969,996,1032,1050
1209,1194,1175,1159,1143,1126,1109,1088,1068,1055,1047,1047,1052,1054,1050,1045,1048,1050,1057,1079,1095,1112,1135,1164,1188,1209,1224,1241,1263,1290,1304,1354,1391,1398,1405,1413,1421,1428,1433,1433,1433,1431,1413,1392,1378,1362,1350,1364,1394,1445,1481,1512,1541,1565,1584,1591,1584,1585,1582,1591,1607,1617,1622,1632,1648,1657,1666,1671,1689,1684,1682,1699,1718,1727,1727,1723,1729,1738,1752,1747,1747,1755,1766,1760,1758,1783,1803,1813,1818,1820,1820,1819,1825,1825,1823,1816,1811,1808,1808,1810,1808,1798,1792,1793,1796,1802,1811,1815,1821,1833,1838,1831,1822,1811,1799,1788,1789,1794,1794,1802,1797,1807,1802,1797,1816,1825,1831,1834,1836,1837,1833,1827,1832,1829,1832,1829,1824,1824,1820,1806,1792,1782,1780,1779,1771,1763,1755,1753,1738,1732,1724,1717,1715,1711,1703,1695,1689,1684,1679,1673,1666,1660,1653,1645,1634,1625,1619,1616,1607,1596,1588,1579,1563,1544,1525,1509,1493,1479,1467,1454,1438,1417,1397,1378,1363,1350,1336,1314,1294,1275,1256,1229,1202,1185,1168,1160,1155,1142,1126,1125,1125,1130,1131,1118,1119,1127,1139,1153,1163,1168,1169,1171,1188,1173,1171,1172,1175,1178,1174,1181,1177,1181,1180,1176,1169,1164,1155,1148,1137,1122,1107,1092,1079,1068,1062,1062,1062,1061,1052,1044,1051,1047,1038,1012,999,977,958,959,981,1014,1041
1178,1184,1155,1129,1117,1101,1085,1070,1057,1044,1041,1040,1044,1045,1041,1042,1046,1050,1059,1074,1086,1102,1129,1153,1165,1179,1194,1215,1238,1260,1276,1321,1339,1355,1369,1380,1386,1390,1394,1396,1400,1398,1380,1365,1354,1344,1354,1383,1419,1443,1461,1486,1514,1541,1554,1559,1549,1556,1570,1573,1589,1605,1617,1624,1635,1643,1650,1667,1682,1692,1691,1679,1697,1705,1717,1714,1727,1717,1704,1703,1705,1710,1717,1738,1770,1785,1795,1798,1802,1807,1808,1806,1809,1810,1807,1807,1805,1800,1804,1804,1798,1784,1774,1777,1783,1789,1798,1802,1812,1824,1832,1833,1825,1816,1808,1804,1809,1817,1824,1833,1828,1822,1816,1826,1837,1842,1845,1844,1846,1845,1850,1845,1844,1847,1848,1842,1837,1842,1824,1808,1813,1813,1808,1803,1793,1785,1781,1774,1759,1753,1745,1735,1731,1726,1718,1711,1706,1702,1698,1693,1687,1680,1671,1662,1652,1643,1639,1635,1624,1614,1607,1598,1581,1558,1537,1517,1496,1476,1459,1443,1427,1411,1395,1376,1358,1344,1330,1308,1289,1270,1244,1216,1193,1177,1171,1165,1150,1142,1143,1144,1146,1147,1146,1137,1141,1154,1164,1175,1185,1188,1188,1189,1202,1192,1192,1194,1197,1197,1194,1197,1202,1204,1198,1192,1183,1173,1162,1156,1143,1125,1108,1092,1079,1067,1063,1062,1061,1062,1061,1054,1045,1040,1035,1009,977,962,960,961,985,1005,1031
1148,1157,1155,1134,1106,1086,1072,1056,1046,1035,1033,1035,1038,1039,1038,1042,1046,1045,1058,1070,1080,1094,1114,1127,1138,1152,1168,1188,1209,1228,1246,1282,1301,1316,1334,1346,1349,1351,1356,1358,1365,1364,1349,1338,1331,1343,1367,1384,1398,1423,1444,1463,1483,1501,1515,1525,1529,1540,1554,1563,1582,1590,1599,1608,1618,1625,1632,1645,1663,1672,1685,1682,1678,1694,1695,1684,1668,1662,1666,1669,1675,1684,1688,1720,1761,1778,1780,1783,1788,1795,1795,1795,1798,1800,1801,1799,1798,1793,1795,1796,1795,1783,1775,1772,1776,1782,1787,1793,1805,1815,1822,1833,1829,1824,1819,1819,1824,1831,1836,1840,1834,1833,1857,1849,1857,1859,1850,1852,1865,1857,1856,1859,1859,1856,1852,1856,1857,1847,1830,1836,1842,1837,1831,1824,1810,1802,1796,1791,1779,1772,1764,1752,1745,1739,1732,1727,1725,1723,1721,1715,1708,1698,1688,1679,1669,1660,1652,1648,1637,1626,1615,1604,1591,1567,1541,1519,1497,1476,1455,1435,1416,1401,1388,1372,1352,1336,1323,1300,1279,1260,1228,1202,1186,1176,1169,1161,1160,1160,1159,1159,1161,1165,1166,1163,1172,1184,1187,1192,1200,1205,1204,1209,1213,1209,1209,1213,1214,1215,1217,1218,1223,1221,1212,1204,1192,1178,1168,1160,1142,1121,1102,1086,1074,1068,1065,1062,1060,1061,1060,1056,1045,1026,1000,981,968,961,957,970,991,1002,1021
1125,1134,1132,1119,1099,1078,1063,1048,1033,1030,1032,1034,1034,1035,1039,1041,1044,1043,1057,1064,1073,1082,1093,1103,1114,1127,1143,1161,1179,1197,1215,1240,1257,1271,1285,1298,1304,1309,1311,1316,1321,1320,1314,1308,1304,1330,1342,1370,1393,1422,1433,1443,1455,1473,1487,1501,1513,1526,1537,1548,1568,1587,1581,1588,1606,1625,1643,1656,1641,1646,1656,1669,1679,1672,1651,1645,1632,1629,1634,1638,1647,1657,1677,1702,1734,1759,1759,1766,1772,1775,1780,1783,1785,1786,1787,1785,1782,1779,1777,1776,1780,1776,1770,1765,1767,1772,1776,1784,1796,1807,1818,1832,1837,1836,1832,1831,1835,1841,1847,1848,1851,1866,1879,1872,1878,1867,1861,1867,1864,1867,1876,1878,1871,1876,1871,1869,1864,1858,1862,1859,1858,1855,1849,1841,1832,1823,1813,1807,1799,1792,1782,1770,1761,1752,1748,1746,1746,1743,1741,1735,1726,1713,1702,1694,1684,1674,1666,1659,1647,1634,1622,1609,1598,1575,1539,1514,1491,1469,1447,1428,1408,1393,1381,1365,1344,1324,1308,1286,1265,1247,1222,1197,1184,1179,1176,1176,1175,1174,1176,1174,1181,1186,1189,1192,1202,1214,1217,1216,1218,1222,1225,1227,1231,1232,1230,1237,1234,1235,1237,1239,1240,1235,1224,1213,1202,1185,1171,1154,1134,1113,1092,1073,1069,1063,1064,1061,1059,1058,1055,1035,1018,996,978,979,980,972,957,963,978,1000,1025
1105,1116,1112,1101,1085,1067,1053,1041,1027,1030,1031,1031,1032,1035,1037,1039,1040,1040,1043,1058,1060,1063,1071,1084,1094,1103,1117,1133,1149,1165,1179,1196,1204,1219,1234,1241,1247,1260,1258,1267,1275,1280,1283,1283,1297,1306,1336,1376,1406,1432,1438,1444,1442,1451,1466,1480,1493,1508,1527,1550,1560,1570,1575,1598,1611,1622,1639,1647,1652,1628,1634,1645,1650,1628,1612,1607,1599,1599,1603,1609,1618,1629,1654,1677,1700,1731,1744,1750,1752,1760,1766,1768,1765,1768,1769,1766,1763,1762,1759,1757,1760,1760,1758,1754,1757,1761,1769,1778,1787,1802,1819,1836,1844,1847,1846,1846,1849,1855,1863,1864,1873,1887,1888,1890,1888,1880,1880,1878,1877,1887,1892,1890,1885,1889,1876,1876,1882,1881,1877,1873,1872,1870,1864,1857,1850,1842,1829,1824,1817,1810,1799,1789,1780,1771,1768,1769,1767,1759,1757,1750,1741,1727,1715,1706,1697,1687,1679,1670,1657,1644,1631,1616,1604,1577,1537,1506,1482,1458,1438,1421,1403,1389,1373,1351,1326,1306,1290,1270,1249,1232,1214,1197,1189,1186,1184,1187,1189,1193,1200,1192,1201,1210,1210,1213,1222,1230,1233,1236,1238,1240,1242,1244,1248,1255,1250,1255,1253,1254,1257,1259,1254,1244,1231,1218,1206,1187,1163,1141,1122,1103,1084,1069,1066,1057,1061,1048,1034,1033,1024,1003,993,993,1005,1015,1007,991,968,955,977,1014,1022
1090,1099,1096,1086,1072,1053,1043,1027,1025,1028,1029,1029,1031,1033,1035,1036,1037,1037,1037,1046,1046,1055,1061,1069,1076,1082,1094,1107,1118,1127,1136,1147,1155,1165,1171,1179,1186,1195,1204,1214,1227,1243,1251,1257,1270,1281,1326,1366,1381,1399,1421,1433,1451,1439,1445,1456,1470,1488,1518,1547,1565,1553,1579,1591,1606,1615,1626,1635,1640,1626,1611,1622,1623,1590,1580,1574,1570,1570,1572,1574,1582,1599,1624,1643,1663,1689,1713,1735,1746,1751,1752,1749,1743,1746,1750,1748,1745,1744,1743,1742,1748,1749,1748,1748,1755,1760,1765,1773,1785,1805,1826,1841,1848,1853,1858,1865,1864,1868,1876,1878,1885,1891,1893,1893,1904,1896,1896,1896,1903,1906,1903,1903,1898,1895,1897,1899,1900,1900,1893,1885,1887,1885,1878,1871,1867,1863,1851,1844,1836,1827,1818,1809,1801,1792,1788,1789,1786,1776,1770,1763,1754,1741,1728,1718,1709,1698,1688,1678,1665,1652,1639,1623,1602,1571,1533,1499,1473,1449,1430,1413,1396,1380,1360,1337,1309,1290,1273,1255,1236,1219,1209,1202,1199,1196,1191,1201,1208,1214,1214,1216,1223,1233,1234,1237,1242,1252,1252,1256,1258,1261,1261,1264,1270,1275,1275,1280,1274,1276,1278,1279,1269,1253,1237,1221,1203,1187,1153,1129,1111,1093,1075,1063,1058,1052,1035,1028,1021,1014,1008,1002,1018,1037,1054,1049,1026,1002,972,955,968,997,1016
1074,1083,1079,1069,1055,1041,1023,1022,1024,1026,1026,1027,1030,1032,1033,1034,1034,1035,1033,1032,1038,1030,1032,1038,1044,1069,1076,1084,1093,1096,1104,1113,1122,1129,1135,1143,1150,1157,1167,1180,1192,1207,1216,1233,1237,1245,1300,1344,1357,1396,1410,1417,1432,1446,1463,1477,1479,1510,1529,1534,1544,1556,1577,1584,1590,1601,1610,1617,1629,1640,1607,1599,1581,1558,1550,1545,1541,1543,1546,1547,1552,1568,1590,1616,1636,1659,1685,1717,1725,1720,1718,1718,1713,1728,1734,1731,1727,1728,1727,1731,1739,1740,1743,1749,1758,1763,1767,1774,1792,1814,1831,1844,1853,1859,1866,1874,1877,1883,1887,1889,1897,1905,1909,1912,1923,1911,1908,1912,1921,1912,1906,1916,1921,1919,1918,1916,1914,1911,1910,1908,1908,1903,1899,1890,1883,1878,1873,1864,1854,1845,1836,1828,1822,1811,1804,1804,1799,1788,1780,1772,1764,1755,1741,1729,1720,1709,1695,1683,1670,1652,1631,1610,1587,1558,1522,1488,1462,1441,1420,1401,1384,1365,1347,1322,1299,1278,1259,1243,1231,1219,1212,1210,1210,1211,1212,1218,1228,1238,1239,1243,1247,1254,1258,1263,1266,1269,1272,1273,1276,1278,1278,1282,1292,1296,1302,1302,1301,1303,1300,1292,1275,1260,1241,1222,1195,1173,1144,1120,1101,1082,1067,1062,1065,1053,1061,1057,1055,1050,1045,1030,1049,1056,1061,1062,1037,1008,973,954,969,1001,1013
1061,1065,1063,1054,1043,1023,1020,1022,1023,1024,1025,1027,1028,1029,1030,1031,1032,1032,1031,1027,1030,1035,1037,1040,1047,1043,1057,1064,1070,1078,1083,1090,1094,1095,1105,1113,1118,1117,1136,1159,1168,1177,1190,1199,1221,1245,1283,1319,1355,1376,1393,1409,1423,1445,1450,1465,1480,1496,1508,1519,1527,1541,1559,1561,1568,1580,1591,1616,1618,1616,1594,1569,1542,1529,1522,1519,1515,1515,1522,1533,1552,1564,1605,1612,1625,1637,1655,1671,1691,1695,1681,1687,1697,1713,1717,1716,1718,1721,1723,1727,1733,1734,1741,1753,1765,1773,1780,1789,1806,1825,1837,1849,1861,1869,1877,1885,1896,1904,1910,1913,1915,1922,1925,1931,1928,1938,1922,1929,1923,1925,1926,1933,1937,1937,1934,1927,1922,1922,1922,1922,1920,1918,1913,1907,1898,1892,1885,1877,1868,1859,1850,1845,1839,1827,1818,1815,1809,1797,1784,1771,1761,1751,1741,1733,1725,1714,1698,1681,1665,1634,1601,1578,1557,1532,1503,1473,1451,1431,1408,1389,1371,1352,1332,1308,1288,1266,1246,1236,1233,1229,1225,1225,1225,1229,1234,1240,1249,1260,1267,1272,1277,1281,1283,1288,1289,1288,1292,1295,1297,1299,1300,1303,1310,1317,1322,1320,1326,1323,1315,1305,1278,1258,1239,1222,1188,1160,1133,1109,1088,1073,1067,1065,1055,1061,1067,1067,1067,1068,1066,1064,1058,1059,1058,1061,1047,1015,979,953,962,976,988
1041,1044,1044,1042,1032,1017,1018,1020,1020,1021,1023,1025,1026,1027,1028,1028,1029,1027,1027,1034,1044,1047,1050,1056,1062,1051,1045,1049,1047,1062,1080,1093,1107,1124,1131,1128,1126,1132,1132,1139,1151,1166,1186,1206,1222,1249,1291,1325,1339,1361,1374,1392,1405,1417,1429,1448,1464,1477,1491,1504,1511,1523,1537,1551,1563,1577,1587,1595,1596,1594,1569,1533,1514,1504,1498,1502,1503,1512,1531,1556,1593,1615,1626,1624,1623,1620,1639,1650,1664,1684,1688,1693,1693,1698,1701,1706,1710,1716,1722,1727,1732,1735,1748,1763,1775,1786,1798,1808,1822,1838,1848,1861,1873,1881,1893,1906,1920,1930,1936,1940,1939,1940,1939,1936,1947,1939,1943,1938,1938,1946,1946,1949,1954,1953,1947,1942,1939,1938,1938,1938,1937,1935,1933,1922,1916,1903,1892,1887,1878,1869,1861,1854,1849,1838,1829,1824,1815,1799,1780,1761,1746,1733,1724,1718,1713,1702,1685,1666,1648,1616,1574,1542,1519,1502,1482,1460,1439,1419,1397,1378,1360,1339,1315,1293,1277,1260,1247,1246,1245,1242,1242,1243,1245,1248,1256,1267,1273,1279,1289,1299,1305,1303,1306,1308,1309,1307,1311,1319,1320,1323,1326,1329,1331,1336,1343,1338,1346,1340,1324,1308,1278,1256,1235,1218,1178,1147,1121,1099,1081,1071,1067,1063,1063,1068,1073,1076,1075,1078,1076,1071,1069,1066,1059,1055,1057,1029,991,961,951,950,953
1036,1039,1041,1036,1017,1016,1018,1019,1018,1021,1020,1022,1024,1024,1025,1025,1024,1024,1028,1031,1040,1050,1056,1061,1066,1066,1070,1078,1079,1085,1091,1105,1120,1137,1153,1155,1152,1151,1154,1159,1173,1185,1195,1212,1230,1263,1327,1337,1345,1356,1374,1388,1401,1415,1430,1433,1447,1461,1473,1484,1490,1513,1526,1535,1538,1555,1568,1569,1572,1566,1520,1502,1493,1491,1494,1497,1512,1529,1558,1589,1615,1643,1635,1631,1627,1627,1633,1640,1665,1682,1687,1692,1694,1691,1694,1698,1705,1715,1724,1732,1740,1749,1763,1778,1790,1803,1817,1827,1839,1853,1864,1873,1885,1897,1914,1928,1938,1948,1952,1961,1964,1963,1958,1947,1957,1953,1958,1959,1960,1966,1971,1970,1970,1974,1970,1962,1958,1956,1956,1956,1957,1953,1951,1949,1940,1925,1911,1900,1886,1875,1865,1850,1834,1830,1828,1818,1800,1783,1767,1749,1732,1717,1703,1689,1678,1666,1656,1647,1628,1596,1555,1522,1504,1487,1468,1446,1426,1407,1386,1367,1348,1323,1302,1287,1275,1270,1266,1265,1266,1264,1266,1267,1271,1275,1286,1297,1300,1311,1314,1325,1327,1326,1329,1327,1330,1331,1331,1341,1341,1347,1349,1351,1350,1355,1360,1365,1359,1352,1336,1312,1274,1250,1223,1202,1162,1135,1112,1098,1081,1074,1069,1065,1069,1074,1078,1083,1084,1085,1085,1082,1075,1077,1071,1061,1055,1037,1008,984,974,970,957
1030,1032,1033,1029,1013,1016,1016,1016,1016,1018,1018,1020,1022,1022,1023,1024,1023,1026,1034,1041,1048,1056,1063,1068,1071,1074,1078,1084,1087,1094,1105,1118,1133,1148,1165,1171,1178,1181,1185,1198,1210,1223,1234,1243,1259,1281,1338,1343,1355,1363,1375,1397,1395,1409,1419,1431,1434,1452,1448,1455,1480,1496,1516,1520,1539,1536,1542,1529,1530,1515,1494,1489,1490,1490,1503,1512,1530,1549,1575,1615,1639,1648,1658,1648,1645,1642,1646,1654,1665,1677,1680,1689,1693,1696,1697,1703,1712,1721,1733,1745,1756,1768,1782,1796,1808,1821,1835,1846,1857,1872,1882,1893,1903,1915,1929,1939,1949,1959,1966,1982,1996,2000,1980,1966,1976,1977,1982,1987,1990,1991,1995,1995,1996,1999,1998,1985,1981,1977,1976,1976,1984,1972,1971,1966,1956,1941,1928,1914,1896,1883,1868,1836,1795,1781,1786,1784,1769,1757,1750,1739,1722,1705,1687,1668,1651,1636,1628,1616,1593,1565,1537,1513,1493,1474,1453,1434,1414,1395,1375,1356,1335,1314,1303,1299,1294,1292,1291,1290,1293,1295,1297,1298,1304,1313,1323,1331,1330,1340,1343,1347,1344,1346,1348,1348,1349,1353,1352,1357,1361,1366,1369,1372,1375,1376,1382,1381,1374,1363,1335,1312,1266,1239,1207,1181,1150,1121,1120,1102,1084,1075,1071,1070,1076,1082,1084,1088,1090,1089,1086,1083,1082,1080,1077,1071,1064,1043,1019,1001,995,997,984
1024,1027,1028,1025,1012,1013,1014,1014,1016,1016,1017,1018,1018,1017,1020,1021,1022,1036,1046,1053,1060,1067,1071,1075,1078,1080,1083,1089,1094,1104,1118,1133,1149,1165,1180,1193,1206,1217,1224,1231,1242,1257,1273,1276,1308,1341,1359,1366,1381,1387,1399,1407,1421,1425,1434,1438,1433,1437,1436,1442,1447,1468,1492,1508,1508,1507,1521,1515,1492,1487,1485,1485,1487,1506,1526,1541,1555,1576,1603,1643,1643,1666,1667,1665,1662,1659,1659,1661,1665,1675,1680,1693,1696,1703,1710,1717,1725,1737,1746,1759,1773,1787,1801,1815,1827,1837,1853,1865,1874,1887,1905,1918,1926,1935,1946,1953,1963,1978,1997,1991,1981,1979,1965,1944,1949,1956,1963,1966,1977,1982,1985,1989,1988,1993,1997,1993,1985,1996,1999,1995,1982,1973,1967,1966,1958,1956,1936,1924,1911,1896,1880,1830,1774,1747,1739,1740,1737,1732,1731,1726,1711,1691,1670,1651,1637,1623,1608,1591,1565,1542,1524,1501,1480,1458,1439,1422,1403,1383,1364,1346,1328,1316,1318,1319,1314,1315,1316,1317,1318,1321,1326,1328,1337,1347,1356,1361,1358,1364,1368,1371,1366,1366,1367,1367,1366,1365,1370,1375,1379,1383,1386,1388,1389,1391,1396,1390,1381,1369,1333,1296,1250,1222,1190,1170,1143,1134,1125,1100,1083,1077,1072,1079,1083,1086,1088,1092,1094,1092,1091,1091,1089,1084,1078,1074,1064,1061,1039,1021,1021,1021,999
1020,1023,1024,1021,1011,1011,1011,1012,1014,1014,1015,1014,1014,1016,1018,1020,1032,1047,1058,1065,1072,1078,1079,1082,1086,1087,1091,1103,1114,1122,1135,1151,1168,1184,1199,1214,1231,1251,1262,1278,1279,1288,1308,1316,1340,1352,1365,1379,1392,1400,1410,1422,1434,1441,1447,1455,1463,1468,1461,1441,1442,1467,1495,1498,1512,1527,1513,1502,1485,1485,1486,1489,1507,1531,1554,1573,1589,1610,1644,1659,1669,1673,1674,1680,1669,1672,1670,1666,1682,1689,1694,1700,1692,1699,1722,1730,1742,1753,1762,1776,1793,1806,1821,1838,1853,1858,1871,1884,1894,1906,1922,1938,1946,1958,1966,1978,1997,1978,1976,1961,1937,1929,1926,1917,1905,1906,1907,1908,1914,1924,1924,1920,1916,1918,1921,1932,1935,1986,1995,1946,1884,1872,1863,1897,1916,1955,1912,1902,1895,1864,1842,1802,1759,1734,1718,1715,1714,1710,1706,1707,1703,1687,1661,1634,1622,1606,1588,1571,1548,1527,1510,1487,1464,1444,1426,1410,1392,1372,1356,1345,1339,1336,1339,1340,1338,1340,1343,1346,1345,1349,1354,1359,1369,1376,1379,1379,1383,1388,1391,1394,1387,1386,1385,1385,1382,1383,1387,1391,1395,1399,1402,1403,1402,1404,1406,1382,1373,1354,1313,1272,1231,1203,1176,1160,1152,1132,1118,1096,1085,1079,1081,1089,1089,1089,1091,1094,1096,1096,1095,1095,1094,1091,1086,1079,1072,1066,1058,1047,1034,1027,1021
