6.644448914803174944e+01,6.423274218268493030e+01,6.444315626540128505e+01,6.372194922714295728e+01,6.189494644435302462e+01,6.238636577176633580e+01,6.341810220916907781e+01,6.502805234736577233e+01,6.399138871838603393e+01,6.278948018369342776e+01,6.531886969965306378e+01,6.711212236463734371e+01,6.751412557137912529e+01,6.774033445793590147e+01,6.889254098344054000e+01,6.914547798520565891e+01,6.997538192758207742e+01,7.179653250303975653e+01,7.197756328330100928e+01,7.276008155063159677e+01,7.099384965760977195e+01,6.968218522238746004e+01,6.823337242190191887e+01,6.698448533095623247e+01,6.797296771609731536e+01,7.352376289598446135e+01,7.541728779304270347e+01,7.755810074561267697e+01,7.876806606806783861e+01,7.832340901895598506e+01,7.588419678817012937e+01,7.349155004045536543e+01,7.373027112267763528e+01,7.503394162442489801e+01,7.660985093336425678e+01,7.559596070323190986e+01,7.436476006724711851e+01,7.331285800164218358e+01,7.294447500255513717e+01,7.203553749086610480e+01,6.920093212447349629e+01,6.554429434939461885e+01,6.147279741601561653e+01,5.754321092175616315e+01,5.245324469452313565e+01,5.160501492401809287e+01,4.944143348544370298e+01,4.659226349816883328e+01,4.512911222817582768e+01,4.237551452494194137e+01,4.260536924737289866e+01,4.300598867023673222e+01,4.132935228369414915e+01,3.956605026808639280e+01,3.812998831111164577e+01,3.475878043968651809e+01,3.103744790355901273e+01,2.776849348405040274e+01,2.623483473851632652e+01,2.499663996788211406e+01,2.331346343346480765e+01,2.275725265550504872e+01,2.190391581668568577e+01,2.127998154616194881e+01,2.208951225979364352e+01,2.108226598767461013e+01,1.891982733919029158e+01,1.737506792991088744e+01,1.562199037315295946e+01,1.319491165658294562e+01,1.266902330714507485e+01,1.157985749075082715e+01,9.164796999798955568e+00,6.511824123176322310e+00,4.680960296054696101e+00,4.270010944039520417e+00,3.028281856417598839e+00,2.296199457912781572e+00,2.198099717919938190e+00,2.043678257656403652e+00,6.004478706396543242e-01,-7.238409923956924397e-01,-1.169953796457758433e+00,-1.406883413296778240e+00,-1.774477341483772230e+00,-4.219511154756820370e-01,2.896943076545272167e+00,5.923365877911417776e+00,1.023733361026798505e+01,1.419281332419078190e+01,1.692640896725650990e+01,1.967324451641199445e+01,2.394108198486352279e+01,2.776555606594428482e+01,3.053717857576456751e+01,3.316985922065932613e+01,3.610951475870929528e+01,3.921234623784228290e+01,4.292909963555071329e+01,4.660328592233145883e+01,4.735915374693841073e+01,4.809335481178119664e+01,4.884774589616293383e+01,4.983357396593989819e+01,5.092741422492483139e+01,5.221690002336138292e+01,5.387410179976956925e+01,5.522675378685077874e+01,5.431409131717295224e+01,5.324576942032359028e+01,5.448894725842886544e+01,5.508294589686455112e+01,5.440464829358433718e+01,5.290337644935962658e+01,5.181311671384752771e+01,4.860661257927461776e+01,4.624070151694765229e+01
6.147166713643333225e+01,6.023312875872990446e+01,6.039873362347945829e+01,5.871559462499716631e+01,5.740604998833656225e+01,5.771327448044989694e+01,5.774055394913087724e+01,5.950278114910138783e+01,6.000889665709046739e+01,5.998041564879362397e+01,6.186850186407720997e+01,6.271728248665044703e+01,6.382159583380704504e+01,6.483958298093391193e+01,6.493149708555081645e+01,6.401713627502705606e+01,6.477575658749711351e+01,6.498958534805366583e+01,6.469622132384263580e+01,6.723807740135924860e+01,6.716934580191392001e+01,6.551210783434981977e+01,6.408026303502605003e+01,6.362828738240912685e+01,6.403919468834942563e+01,6.893208676335986240e+01,7.166372340010715902e+01,7.263475563626364817e+01,7.285671805986244465e+01,7.282969173011237274e+01,7.049465965410225010e+01,6.790641015515936374e+01,6.715402787077928792e+01,6.900180878969707976e+01,7.186767929548508960e+01,7.107677773744607919e+01,7.061541695707228428e+01,6.830703122019751561e+01,6.567922363401096675e+01,6.521030648387947792e+01,6.409857080323877199e+01,6.144304184726410512e+01,5.770536217411058288e+01,5.336340749831789765e+01,4.861008332390502318e+01,4.847090596698812703e+01,4.727847951441156482e+01,4.470603155151847119e+01,4.332688255264525878e+01,4.028168275476389937e+01,3.970972038332693188e+01,3.944203753895483544e+01,3.751690575832612495e+01,3.683893674188048095e+01,3.641119993138258337e+01,3.291199551336264761e+01,2.906380374595999427e+01,2.666428320379101535e+01,2.606091087836363229e+01,2.484357874040378888e+01,2.198564004394277305e+01,2.072539419165115859e+01,2.000552967012000138e+01,1.918467131980617779e+01,1.904458797778391954e+01,1.873916642378043917e+01,1.782459995027666011e+01,1.671739993268527869e+01,1.483647567312002913e+01,1.240909405307015589e+01,1.197300960496097844e+01,1.036013637810600230e+01,8.396376202188291060e+00,7.184927450421466411e+00,5.562530513319732250e+00,4.079700766322540417e+00,2.432858909625811972e+00,1.924495168331715522e+00,2.008396683693745910e+00,1.780490913891814797e+00,6.216964769918784661e-01,-6.961728860253645346e-01,-1.221213881812808211e+00,-1.429445856797266989e+00,-1.693879153542117821e+00,1.720633125478941983e-01,3.684433660195611360e+00,6.936254522478233042e+00,1.076363252414583194e+01,1.400153088955331526e+01,1.743585467323418214e+01,2.111439718151194000e+01,2.518407380524936201e+01,2.790742674939546220e+01,2.983771892517043156e+01,3.372034781558978978e+01,3.817376148133759983e+01,4.036281723655595499e+01,4.214640503814833750e+01,4.498517243407954425e+01,4.658426270865069796e+01,4.779706634600497495e+01,4.885580503404114694e+01,5.050056575353868027e+01,5.159365985796055298e+01,5.318049535621676682e+01,5.522778780487283967e+01,5.607680731519088368e+01,5.543619316812595343e+01,5.476321217964944310e+01,5.604424493243104166e+01,5.711254544961549584e+01,5.779423639828843307e+01,5.574652658163090280e+01,5.306536634463234492e+01,4.976344389520225775e+01,4.764509144849824906e+01
5.632942437617830223e+01,5.620642269143667136e+01,5.649724637843092978e+01,5.559620773234766489e+01,5.650388192596785331e+01,5.652873736507483216e+01,5.546996635828865863e+01,5.580317526369918824e+01,5.621781609849873718e+01,5.742704625683868613e+01,5.861958660440915025e+01,5.821214350457286457e+01,5.966315009940268510e+01,6.042716797426154329e+01,5.846608240919011479e+01,5.655854081275814593e+01,5.736509800584904895e+01,5.769474128562324466e+01,5.860954947455868336e+01,6.036291957382708517e+01,6.011806203329162912e+01,6.014959906925799515e+01,6.074901849490419181e+01,6.172886947210314190e+01,6.222745845541576415e+01,6.469668173634579489e+01,6.643213236192289628e+01,6.670177209368083027e+01,6.640693946120622115e+01,6.494536633088367239e+01,6.179282124181465008e+01,6.097226186143507221e+01,6.119829140771948062e+01,6.365067837255158878e+01,6.785233080064674027e+01,6.554171581314786010e+01,6.410295774134208102e+01,6.277327637657715087e+01,6.013321995409197029e+01,5.788643795328163577e+01,5.732345633946277275e+01,5.661083908081829463e+01,5.416016862958552025e+01,5.136937017909620096e+01,4.884002929391945713e+01,4.806993891427300269e+01,4.650452093542682519e+01,4.407039974935000259e+01,4.264715680186758107e+01,4.022856626592709262e+01,3.945523629090098439e+01,3.868466506190458176e+01,3.664566438362426481e+01,3.425558421145788657e+01,3.208042112701981807e+01,2.996345638701731318e+01,2.744601147556239695e+01,2.529432236559004465e+01,2.501265832476821416e+01,2.509378360565577637e+01,2.164374326395462944e+01,1.922574484511954651e+01,1.817917576911997557e+01,1.796727169006185321e+01,1.771169334676139684e+01,1.725299622891808227e+01,1.672545779551598599e+01,1.587734073855441608e+01,1.371108209921739629e+01,1.152078089313867260e+01,1.156068661440533241e+01,1.044956228850687374e+01,9.884226336832982795e+00,8.782728865684617858e+00,6.097551584259979229e+00,4.359711545774434427e+00,3.017489157004483502e+00,2.079749557087620992e+00,1.760206595491817128e+00,1.422284380867975706e+00,7.783786517500298485e-01,1.834471543985032871e-01,-5.692833405314170481e-01,-8.557720735236016285e-01,-1.062829408507001361e+00,1.693640326374581173e+00,4.939918321805830459e+00,8.260697645619400120e+00,1.138048195022281917e+01,1.342123853265707289e+01,1.727971598833087086e+01,2.108346072873157695e+01,2.408556632684949150e+01,2.766608540103849023e+01,3.079941602344658946e+01,3.349669540876092810e+01,3.692409206472662220e+01,4.022513049140532360e+01,4.215572845784655698e+01,4.325934043219969283e+01,4.527030218599697520e+01,4.696414439681330322e+01,4.833244730499896491e+01,5.138125492589735188e+01,5.322808332015390675e+01,5.383909859566043110e+01,5.498974952418776496e+01,5.594965817229062566e+01,5.620546268958664626e+01,5.659417287313241474e+01,5.851235131183170779e+01,5.839077547988494388e+01,5.877587995806749177e+01,5.740196008857059695e+01,5.432130013400101376e+01,5.178792357484172726e+01,5.077471583863142968e+01
5.121326265319159177e+01,5.227076821614122082e+01,5.339678368810708520e+01,5.304052238062710956e+01,5.384367401179653001e+01,5.327711163543735751e+01,5.175755511136208042e+01,5.072609910544942124e+01,5.068565947354733225e+01,5.177669853817661050e+01,5.162826164757687764e+01,5.124483103506772608e+01,5.246980143580732658e+01,5.202871920641904779e+01,4.936073993470798627e+01,4.788919195098740289e+01,4.835394055581492978e+01,4.904051402136276039e+01,5.089030588526588872e+01,5.146248162659895087e+01,5.166064958606434487e+01,5.363322849131665748e+01,5.462183630618966390e+01,5.534147464721253584e+01,5.682039494944213942e+01,5.864966185420041000e+01,5.972940840196605450e+01,6.114684779708026952e+01,6.136396627088995359e+01,5.915343840706567846e+01,5.573995156217496572e+01,5.522089823392598618e+01,5.496725190225495083e+01,5.677214473965369024e+01,6.006070882298336500e+01,5.766209686813733981e+01,5.637429899787204590e+01,5.642952334150994886e+01,5.495110438930740315e+01,5.244294501801202557e+01,5.084968190475490957e+01,5.009720833172560361e+01,4.794254025738446501e+01,4.607187717792277937e+01,4.422215183054967014e+01,4.372296168835993768e+01,4.250088977162836557e+01,3.957144578145618397e+01,3.766760119894050263e+01,3.588714283174956421e+01,3.553664745589540530e+01,3.515548246100811269e+01,3.407237551558728228e+01,3.190073433074594789e+01,2.942223296137642308e+01,2.780445566467144047e+01,2.629736745993524138e+01,2.358185521440396570e+01,2.254885932731901477e+01,2.269341572022850428e+01,2.011986541910541249e+01,1.858766871848544966e+01,1.783757509053270596e+01,1.823670043536278484e+01,1.895612955045803005e+01,1.777419431926003313e+01,1.630319802324212830e+01,1.390814676901500491e+01,1.099287159360140542e+01,8.020026152812087972e+00,7.720918916818281907e+00,7.350479841341388543e+00,7.774067988084135905e+00,6.762930102298066792e+00,4.553016475355134318e+00,3.600024729409511348e+00,3.025983827492645606e+00,2.446613258568216764e+00,1.986686171382859412e+00,1.075802610193896891e+00,1.896845014569657484e-01,5.347492563196740850e-02,3.289480690670965740e-02,-6.744184959612168351e-01,-9.662148815645107414e-01,1.863645929760562758e+00,4.576341089446275490e+00,7.547020689181295872e+00,1.061592574095853081e+01,1.368311591571617036e+01,1.746398595330348869e+01,2.007922361400909850e+01,2.235549532409639184e+01,2.593598624060762603e+01,2.871164654971426700e+01,3.079307760601512811e+01,3.331118357403004637e+01,3.684178098646674471e+01,3.971164865555506651e+01,4.156276843884734973e+01,4.463229089712541509e+01,4.743305194382648438e+01,5.017288680137534840e+01,5.282563604101647314e+01,5.471376530309351693e+01,5.578072108737988799e+01,5.720045210301807259e+01,5.864504767274328856e+01,5.948499210365858403e+01,6.046374259481660118e+01,6.123224599262557888e+01,6.080195898257983345e+01,5.990969114176916577e+01,5.812033614485822852e+01,5.539566832913391181e+01,5.363832351540166599e+01,5.251877145181365591e+01
4.648368248233951050e+01,4.782148622547086347e+01,4.889058792193041825e+01,4.888847470030864883e+01,4.940544013011952273e+01,4.858513572957866700e+01,4.694411073759236785e+01,4.551142445858175734e+01,4.594132173148985032e+01,4.681445520478322209e+01,4.526156368206825675e+01,4.399306769643763459e+01,4.408858579477873008e+01,4.456117122432117839e+01,4.326341091587404009e+01,4.230071823825966959e+01,4.255457794623438161e+01,4.205010229643735897e+01,4.324257472069454167e+01,4.417583153563913356e+01,4.595795891423191648e+01,4.856764747603252630e+01,4.870091033195879504e+01,4.845566699200871597e+01,5.014604370325558591e+01,5.214854341875132349e+01,5.339883372075960466e+01,5.442187330909847987e+01,5.363820053159281542e+01,5.210154605990717869e+01,5.000648903747528351e+01,4.959446065894803723e+01,4.869964402182419150e+01,5.002921082385334728e+01,5.258866899282205054e+01,5.104303079519359443e+01,5.082673249602026999e+01,5.074822548660700505e+01,4.893506643102350040e+01,4.749186553470670447e+01,4.651795760578858108e+01,4.536545831815798380e+01,4.313104019771807884e+01,4.118989170280035950e+01,3.905677007510928433e+01,3.878058852913933663e+01,3.785550279903645077e+01,3.578703668633038859e+01,3.473160828304306591e+01,3.235395428537592721e+01,3.122191099814041237e+01,3.005639521105901224e+01,2.875107062145410097e+01,2.795911516662332374e+01,2.633732823501768294e+01,2.415441219874536571e+01,2.260040715895122432e+01,2.071138708270552797e+01,2.027204907880242502e+01,2.039295546270336601e+01,1.834262565683238222e+01,1.753568565564738435e+01,1.693802784769285452e+01,1.663011615807347710e+01,1.698883008004372996e+01,1.555839036646845841e+01,1.363356055949917511e+01,1.107959621961565944e+01,8.699741492439422075e+00,6.187951903030608491e+00,6.159975195909849432e+00,5.515407045200664271e+00,5.904572831671135447e+00,5.638077779375056942e+00,4.446961257106947230e+00,3.048954754576965964e+00,2.138508091607171924e+00,1.888109396071497637e+00,1.282701722775726916e+00,9.098022667815098830e-01,5.957564539966434536e-01,1.805102040938847546e-02,-5.333247537031120533e-01,-8.153039280762424124e-01,-9.866876029032517481e-01,2.033843870047251645e+00,4.608505523229237788e+00,7.837563667107547261e+00,1.153344980995020563e+01,1.490413759919109715e+01,1.807151206451326075e+01,2.078170692755069027e+01,2.367628035068216619e+01,2.639144546263087676e+01,2.789159165657772732e+01,3.049443283858023790e+01,3.328650275477414056e+01,3.609684353005866342e+01,3.889888737686570863e+01,4.111970060953541406e+01,4.458472560816986174e+01,4.722890844287677936e+01,5.005428781974326569e+01,5.284118381316947932e+01,5.531862055999265948e+01,5.690179641433731206e+01,5.864931001042133119e+01,6.062597280760193286e+01,6.210302499059115178e+01,6.405436800049096746e+01,6.470297618149712093e+01,6.450319921136190260e+01,6.285293753278924811e+01,5.970944778979497158e+01,5.642335953207540911e+01,5.563108967802708094e+01,5.458292892027891696e+01
4.204522530380121736e+01,4.258840637344517432e+01,4.213829866062619800e+01,4.269767045357145463e+01,4.310078936279322193e+01,4.207088808502368948e+01,4.123279981030919572e+01,4.049247694089503113e+01,4.064902103391623456e+01,4.089793267150553646e+01,3.933457737474716964e+01,3.780580976305647312e+01,3.619805129719284764e+01,3.721363984334008990e+01,3.827042977413840674e+01,3.708966706026343019e+01,3.698611290506450899e+01,3.689835202709146955e+01,3.760230362744236032e+01,3.861108884640297845e+01,4.107575973870222441e+01,4.283691389792308968e+01,4.217329328241086017e+01,4.238915735377931071e+01,4.420302070151711860e+01,4.545067646805465955e+01,4.543720473408968985e+01,4.580422081043040095e+01,4.581318768115492901e+01,4.508491193618901605e+01,4.279825639153299477e+01,4.334713722988720264e+01,4.365244192155417124e+01,4.462704868994285334e+01,4.688205731919445185e+01,4.531598321698068332e+01,4.419704820863869088e+01,4.385456515900581564e+01,4.356846777816148375e+01,4.263910339333493482e+01,4.135701276726820197e+01,3.988479023077459118e+01,3.797810435476824864e+01,3.682529661765224205e+01,3.495391870510740517e+01,3.479232011963105720e+01,3.415447789892201769e+01,3.237666346112846583e+01,3.047647341441197000e+01,2.867608040151161930e+01,2.759577771479842312e+01,2.524195941897335871e+01,2.324034091367657240e+01,2.234833090573365055e+01,2.178426016626356088e+01,2.029341121332126363e+01,1.866875922932937826e+01,1.735908793811907103e+01,1.686481280063061305e+01,1.676649366197334601e+01,1.621771176952870164e+01,1.520139402303589904e+01,1.427067196108254343e+01,1.406725945381682408e+01,1.393560477248758467e+01,1.260310130403805218e+01,1.146266625952425500e+01,9.258637855318601950e+00,6.399879785763489259e+00,4.440884063289508354e+00,4.808728968055362429e+00,4.353083612328524588e+00,5.010208647305030460e+00,5.254798848009857970e+00,4.590070151205386750e+00,3.013097907521729457e+00,1.750192637258577433e+00,1.045809598380412320e+00,6.366642798188089092e-01,1.126253170856019059e+00,8.763662140630437136e-01,-2.272202627068090064e-01,-7.932996521199667805e-01,-8.967567062162941083e-01,-9.946946580874629351e-01,1.721607050715899145e+00,4.619733830482976700e+00,7.963624686803007613e+00,1.244862998500468798e+01,1.538362484368649596e+01,1.787208585142952089e+01,2.212778877057172267e+01,2.587114782485204856e+01,2.745147770846877577e+01,2.831381812232104167e+01,3.108644167479345555e+01,3.363248061474035921e+01,3.691149176760736594e+01,4.035506739850247016e+01,4.231693537728806120e+01,4.499268982623998880e+01,4.765589618543963724e+01,5.053600836186537038e+01,5.294588388758069897e+01,5.498549315775201052e+01,5.628129246685282538e+01,5.837723994859559440e+01,6.092742631764088657e+01,6.338552467506777788e+01,6.538163804220130260e+01,6.581859770259866593e+01,6.619264950580163998e+01,6.416406616945027963e+01,5.991423952508831974e+01,5.606306986084221933e+01,5.585841128076561546e+01,5.539743875303152976e+01
3.499326967835022373e+01,3.685846569080346313e+01,3.706204793364013739e+01,3.677290680438986925e+01,3.569190886628229009e+01,3.429195516841527080e+01,3.403006022578558287e+01,3.376201145031346584e+01,3.347139020653983721e+01,3.333435559212748700e+01,3.196666791628662452e+01,3.205148215164636127e+01,3.068725714191156939e+01,3.049451547721239919e+01,3.202251979360548972e+01,3.149399771513236246e+01,3.190006588378786034e+01,3.214809174901400013e+01,3.232967265009672531e+01,3.288965669151688331e+01,3.516174722481228088e+01,3.756576557428905261e+01,3.761143971993939061e+01,3.657728206102344615e+01,3.681010265624632183e+01,3.874904898675095666e+01,3.896724460000855572e+01,3.861738073317157216e+01,3.926605242379623917e+01,3.936764596631839197e+01,3.714639840042812580e+01,3.682556476398716683e+01,3.648876576921534109e+01,3.715033676999971135e+01,3.912290763944683647e+01,3.853602132799218083e+01,3.755037306695236765e+01,3.588636514948428413e+01,3.596206481208824357e+01,3.516258596716988194e+01,3.353973357616604289e+01,3.207171998042024796e+01,3.077831230854857836e+01,3.030775684899776223e+01,2.863916385323010161e+01,2.862871548436286062e+01,2.831311671085329351e+01,2.763413003071712026e+01,2.574442229868234477e+01,2.368783011017618279e+01,2.187032212045169288e+01,2.036574425340594985e+01,1.961637677444853622e+01,1.862497759273393072e+01,1.903852871971993110e+01,1.825026318879143261e+01,1.660468897643550790e+01,1.559304356230989796e+01,1.481330582081929670e+01,1.378579912807053276e+01,1.369472096034932385e+01,1.326899858460105719e+01,1.279614782398897255e+01,1.259355501780758502e+01,1.190538337237035016e+01,1.050459487007024251e+01,9.940264761722405140e+00,9.023541530473558225e+00,6.531931049415148571e+00,4.534307972863663494e+00,4.353115921217370676e+00,3.546206836996438572e+00,3.932264692818349783e+00,3.962431129147221398e+00,3.161045998025053816e+00,2.284161084732851066e+00,1.436205769303352087e+00,7.346120991726137195e-01,8.430825555080027067e-01,1.372616795164933512e+00,4.057299399265313355e-01,-3.093703226420191910e-01,-4.750273338414175983e-01,-6.691038935443144320e-01,-8.729235852242231974e-01,1.459932646541976631e+00,4.319935563190522743e+00,7.142626239286567369e+00,1.166655281945003075e+01,1.590743214810453487e+01,1.989173125791239727e+01,2.392971780908887425e+01,2.661571312670151457e+01,2.878755296661297081e+01,3.079042556755127436e+01,3.349746590255617207e+01,3.554199668693812697e+01,3.841290225315660933e+01,4.159243890380999176e+01,4.519835451260192372e+01,4.874249411565794787e+01,5.138062021067593577e+01,5.427136807218038683e+01,5.606346466390500183e+01,5.741716732569433645e+01,5.778572202360367527e+01,5.959227535092509953e+01,6.091069899507461116e+01,6.252099819540632097e+01,6.448026705610470799e+01,6.531827478544393273e+01,6.634248457231169027e+01,6.401909219670369566e+01,6.069681554304872151e+01,5.826971783834427754e+01,5.700148154193296790e+01,5.548476208970068058e+01
2.894092080682149515e+01,3.081034836411860312e+01,3.086027052132390480e+01,2.918705464226816204e+01,2.682396939942895386e+01,2.660138918560660315e+01,2.721805017623799827e+01,2.680361986242046868e+01,2.667343765913819453e+01,2.703799166515400287e+01,2.569475356594128712e+01,2.599410139088558935e+01,2.511877884401007677e+01,2.520600320963216845e+01,2.681276248197345780e+01,2.752414014790623042e+01,2.862436084824109273e+01,2.813453223155074667e+01,2.843831826305892818e+01,2.903071719808559337e+01,3.089270409076607038e+01,3.219351242006018055e+01,3.221711412368008354e+01,3.071229864615280292e+01,2.960664334383123375e+01,3.130777043093376122e+01,3.139413501806748741e+01,3.093204508737833791e+01,3.142371888076556630e+01,3.162220391687705856e+01,3.074964484849035884e+01,3.096917344884598222e+01,3.069115640171044035e+01,3.103464975670067005e+01,3.285446252420322821e+01,3.255920231318819447e+01,3.197885046789768282e+01,3.046640826286724035e+01,2.906812578313144613e+01,2.807191702471160255e+01,2.635112101782936733e+01,2.501133148297549980e+01,2.447930155904208505e+01,2.412104283733385657e+01,2.331607907199321161e+01,2.310691083862940687e+01,2.303388322804716992e+01,2.314643987578197937e+01,2.195537372290369049e+01,1.925320604402239510e+01,1.688204618359922193e+01,1.595464950465615672e+01,1.492027865865055070e+01,1.422261643965337186e+01,1.553889029013715017e+01,1.548909584585401333e+01,1.408873995912234101e+01,1.275789957591836021e+01,1.185167928568765205e+01,1.047061661370650931e+01,1.011703279993660942e+01,1.081197273201294884e+01,1.067958898258356903e+01,9.357957655657985541e+00,8.442729987307091122e+00,8.614929585795064071e+00,8.221693250690723431e+00,8.189633959981845734e+00,7.132403269494020037e+00,5.848149845870563190e+00,5.342499524436779446e+00,3.811286694628526206e+00,3.132367818086447819e+00,2.683607023406196834e+00,1.909738699895748182e+00,1.109330106722733911e+00,5.722868465600564614e-01,6.404228617623454189e-01,1.182237658156465754e+00,1.024076822380515672e+00,2.285026514192340513e-02,-2.356713562816052099e-01,-2.977264055879343396e-01,-5.824209788669407750e-01,-7.680855393307426393e-01,1.416343246806807565e+00,4.150668358551460102e+00,6.923149860748117668e+00,1.164913560865189091e+01,1.665587275198983619e+01,2.131166345192633926e+01,2.506607650337634752e+01,2.823088270845470404e+01,3.246481399110263766e+01,3.563677548897118186e+01,3.703931492245330048e+01,3.875183853301929560e+01,4.176482550680660211e+01,4.540393527219943337e+01,4.996044782969757847e+01,5.375236352440049359e+01,5.553200799896767847e+01,5.737813813663237283e+01,5.848923479287208949e+01,5.925397916640216067e+01,5.940584070435493658e+01,5.911935632169607402e+01,5.908077446695505586e+01,6.045784187934943077e+01,6.271801040299801855e+01,6.480385720912160252e+01,6.569257539734918794e+01,6.444663850446782760e+01,6.172229243978253521e+01,5.909628539642108791e+01,5.765517828449623750e+01,5.525875800815430239e+01
1.956695782942939488e+01,2.046377883133471087e+01,2.007813587757311069e+01,1.929113585452531865e+01,1.848047744059337916e+01,1.870022363498768314e+01,1.931489357357782666e+01,1.958102963320287060e+01,2.023572646573153477e+01,2.048202867352975431e+01,1.913296684911767542e+01,1.938791392438731620e+01,1.845924706872299836e+01,1.927182895750571490e+01,2.112119625494315045e+01,2.171144853964046462e+01,2.223179994347473709e+01,2.199981730110361156e+01,2.341142487616302859e+01,2.461943131180683508e+01,2.606638349653337272e+01,2.660043029925604685e+01,2.707784138158817910e+01,2.562809439619971386e+01,2.396181253820528312e+01,2.458423010653007523e+01,2.373681303536336173e+01,2.283306382419667813e+01,2.286751205675011889e+01,2.216254956652036867e+01,2.257298465846851698e+01,2.404270607275617877e+01,2.464508692300687187e+01,2.574740503486973608e+01,2.855396480094966094e+01,2.700078481562946209e+01,2.520830738442122154e+01,2.418359408303786751e+01,2.169932834205771854e+01,2.004464633804442997e+01,1.943796657826306884e+01,1.875248912171234750e+01,1.924909007214257528e+01,1.960584750576313340e+01,2.002124870807682555e+01,1.933165223337241301e+01,1.954295320084048271e+01,1.928103253883992352e+01,1.799623727976416987e+01,1.650489896198284612e+01,1.461993734151097968e+01,1.360232176122852366e+01,1.126280778361654633e+01,9.203391960107643044e+00,9.212509440694782725e+00,9.611128921247114931e+00,8.592721533385708099e+00,8.388169132304513553e+00,9.008167365425796547e+00,9.193989395778263685e+00,9.169874081772528385e+00,9.173384848155771820e+00,7.778171552460180216e+00,6.128682260280953642e+00,5.774098314466775683e+00,7.314266865080227831e+00,6.936354150439345112e+00,6.910235864497655811e+00,6.357084386086790495e+00,5.284986129481755057e+00,4.400569696473453085e+00,3.401097325826743401e+00,2.838244269287383492e+00,2.295534484698082078e+00,1.865844242008107168e+00,8.777890473402644167e-01,4.096309224520604531e-01,1.083002268895920661e-01,-1.089746305040178442e-01,3.870216406440004503e-02,1.863107399088833604e-01,5.641322795280805380e-01,5.270472153543204197e-01,5.565997523074933673e-01,5.821050622329505542e-01,2.702747215060200325e+00,5.122542455193437760e+00,7.167187475828695753e+00,1.105300895086005042e+01,1.515997637154857536e+01,1.934555892938512045e+01,2.346390278838950039e+01,2.823084814120304742e+01,3.252006105343425446e+01,3.520988477833220287e+01,3.708543505369237892e+01,4.004744758196558507e+01,4.284036629444573663e+01,4.630542278424881886e+01,5.040930188977876725e+01,5.353053366396382984e+01,5.594849997681183851e+01,5.878756476597245495e+01,6.001144227228374461e+01,6.151341400813524274e+01,6.291974027192884478e+01,6.146963144513400579e+01,6.008860637539505944e+01,6.074767734000922559e+01,6.054054179517535061e+01,6.094903819984640592e+01,6.095326554450804935e+01,6.039036200350548000e+01,5.884331660509774764e+01,5.693511229026586307e+01,5.568388123237443210e+01,5.275609607092889064e+01
1.078346473099113645e+01,1.103999058118319176e+01,1.100586957421778145e+01,1.113560952022287864e+01,1.155640746788268736e+01,1.256051716291814024e+01,1.309092721313851193e+01,1.360077771006685587e+01,1.415976179559575954e+01,1.388470534229663578e+01,1.214753287720121122e+01,1.250735018210365546e+01,1.289315069181024676e+01,1.387473986995028419e+01,1.542942310220250590e+01,1.536136114406267161e+01,1.535369873338170876e+01,1.600065889069437830e+01,1.763225813023566602e+01,1.832393311183755813e+01,1.920879125370393581e+01,2.082421473584219029e+01,2.196984397156638380e+01,1.948497583681159995e+01,1.708310498759686169e+01,1.783518539493691435e+01,1.740280717857893578e+01,1.643287570653435026e+01,1.569691061380903996e+01,1.470950001675663721e+01,1.537399949485654460e+01,1.621914615523979819e+01,1.718901076578721643e+01,1.915475144433594679e+01,2.249711384038819162e+01,2.060258593300919827e+01,1.793814556661484971e+01,1.692540638972223377e+01,1.491510474581317780e+01,1.300000140830845652e+01,1.324000481084700809e+01,1.280471186324580835e+01,1.372883200971875617e+01,1.454530106433858272e+01,1.542478542824352772e+01,1.477484089185906591e+01,1.395302385499669739e+01,1.324710218361745540e+01,1.276523709038088761e+01,1.302390818526013483e+01,1.164341662360215324e+01,1.054442829863773667e+01,8.632645320348064644e+00,6.268000851388830341e+00,5.232007275574095395e+00,4.959116488968633440e+00,4.598767112103776533e+00,5.606477640623432457e+00,6.601054445872156506e+00,7.186949006562094233e+00,6.799307234273056721e+00,6.325036368742695814e+00,5.502399403425584978e+00,4.547742331626494661e+00,3.467043984533599410e+00,4.505391062778096867e+00,4.856583172844706198e+00,5.110219198168987731e+00,4.901203044690342736e+00,4.091280730716067460e+00,3.084810361545364810e+00,2.892287335065298226e+00,2.507824843548028149e+00,2.038088021135268768e+00,1.703677763687827529e+00,7.575113051890661753e-01,3.741501624947666249e-01,-5.258011510993206850e-01,-9.750248126216813915e-01,-6.977241709243863221e-01,6.734151194650946914e-01,1.432273626896357177e+00,1.487373638213787652e+00,1.492477465483392995e+00,1.433561388041164397e+00,3.620154662858056316e+00,5.879275036264798970e+00,7.666205467206228974e+00,1.038287879623796428e+01,1.385195745124630307e+01,1.933818503158222413e+01,2.414293100027532901e+01,2.839952960255810410e+01,3.245547806734187901e+01,3.602951450427443802e+01,3.895334496733969587e+01,4.240358855285504802e+01,4.445076034551520650e+01,4.744034167228846144e+01,5.137574506274977182e+01,5.393369627699493662e+01,5.636922474955712659e+01,5.962900723798595948e+01,6.108192548501052244e+01,6.312859249928531113e+01,6.469794318438667347e+01,6.353007889281103360e+01,6.218484271498601856e+01,6.158714708159003237e+01,5.913335837970043229e+01,5.848110335966076434e+01,5.829465551100532394e+01,5.742380285135509865e+01,5.751042571580995144e+01,5.765084595209636120e+01,5.498679785629232697e+01,5.179439538621189598e+01
5.502542351380646402e+00,5.118179030010814756e+00,5.212887226702515697e+00,5.269678530081908896e+00,5.854362799774555093e+00,7.387675526777437440e+00,7.760672495304455687e+00,8.243439861426056225e+00,8.486411871400120432e+00,8.361781680832391928e+00,7.091859571792149097e+00,6.295398436318333957e+00,6.499673301367205447e+00,7.422732725416318900e+00,8.502414431587926202e+00,9.083640261179589004e+00,9.844672799477104164e+00,1.028612545335563055e+01,1.110036887945966377e+01,1.205514598835730489e+01,1.346514374874691278e+01,1.422359895632616578e+01,1.413190063167394150e+01,1.239108932265242835e+01,1.093477832293962315e+01,1.058904177992617335e+01,9.363055959507208925e+00,9.013178319221097468e+00,8.293563650563150702e+00,7.955037716891213861e+00,9.002187091764795923e+00,9.843515039531363087e+00,1.166550961286857024e+01,1.288356284687372089e+01,1.509866939448058254e+01,1.433541400797640541e+01,1.230494981558360834e+01,1.091441369536999773e+01,8.965192610519434169e+00,7.066270221423523346e+00,7.470065640972253895e+00,7.275873150446897419e+00,8.541785284210662965e+00,9.340374969366449065e+00,1.020171358949642304e+01,1.005116884346402983e+01,8.797114198941084595e+00,8.048213382366522950e+00,8.571641404714489099e+00,9.276446901457919836e+00,7.754847245103337450e+00,6.541806329314884927e+00,5.009503977909987249e+00,3.125740186916384111e+00,1.903948746612178722e+00,1.240003548692540258e+00,1.418653964788982424e+00,2.488985325775337820e+00,2.895684541828803749e+00,4.194647201847645945e+00,4.345809749256008381e+00,3.598524235861193521e+00,3.396734630115526787e+00,3.301873532215018336e+00,1.854160036843597092e+00,2.729548282183060337e+00,3.997294382695362192e+00,4.266622930135397063e+00,4.124258055028187542e+00,3.183861624875490737e+00,2.055549564226560211e+00,1.665514806175303342e+00,6.639880584266010244e-01,5.244716679869440012e-01,5.017195985956454107e-01,-3.888894212858770016e-01,-6.651485803361972815e-01,-7.746674699116269380e-01,-8.844962127932850526e-01,-9.093374340834272651e-01,2.275520490205482360e-01,1.314317413377235733e+00,1.607103563210522612e+00,1.683511432748013625e+00,1.634162875973098394e+00,3.993549087640151818e+00,6.343895127439276749e+00,8.897652780280974838e+00,1.158287909767448554e+01,1.351774000093716666e+01,1.855816602050029829e+01,2.390845147131708970e+01,2.751712570526921198e+01,3.181091570803357271e+01,3.677076381780956638e+01,3.964548400367981884e+01,4.244474757414037214e+01,4.492032697141325315e+01,4.863768117627758159e+01,5.267714469847074099e+01,5.474210024493385163e+01,5.675366664967010166e+01,5.998538173760390890e+01,6.188468722259683119e+01,6.469896916168961809e+01,6.681498843152031952e+01,6.631394505806096618e+01,6.529763129425774082e+01,6.371913815253377322e+01,6.065653223710538100e+01,6.015183451373135171e+01,5.984089784878288043e+01,5.871906070858913296e+01,5.776329064756993148e+01,5.728716008622583189e+01,5.486759522019382018e+01,5.303528023769399624e+01
9.127451989390907849e-01,4.710977644817655463e-01,4.967249152021210867e-01,1.085884309611833576e+00,2.293387059544822471e+00,3.201912042011359816e+00,3.320028515386973744e+00,3.646582860125989978e+00,3.346272018691462957e+00,2.687658063850548285e+00,2.190820648692000550e+00,1.600141520832561781e+00,1.456349709443417018e+00,2.232680932296408294e+00,2.892169227196832892e+00,3.119954492507478250e+00,3.824906076215890405e+00,3.672904030118445462e+00,3.739151310858531474e+00,4.548956294993045546e+00,6.598674187009000214e+00,6.961639924918402222e+00,6.438745719555764246e+00,5.832781940375586061e+00,4.358899867232460146e+00,3.573260937279934879e+00,2.551576275304584751e+00,2.307407014480823193e+00,2.204890552512706048e+00,2.378562834266192638e+00,3.424027263756463935e+00,4.303376411568988757e+00,5.823430371275881257e+00,6.259288825960177327e+00,7.019512435451327192e+00,7.087809399973278524e+00,6.472424066078937166e+00,5.557843971236890113e+00,3.908615164533231212e+00,2.303886564808640181e+00,2.102137057560508282e+00,2.173865460862913768e+00,2.786065265607459818e+00,3.421549728559201586e+00,3.923497639181751762e+00,3.050292562958192288e+00,2.757291820228858548e+00,2.517944354599817025e+00,2.938475851207337897e+00,3.489489750741309848e+00,3.064801574129525807e+00,3.225659808243057647e+00,2.343353977276701361e+00,7.500627027748840714e-01,-5.124092165429634527e-01,-1.004906120957705484e+00,-9.657908258443512750e-01,-6.525232757828447472e-01,-1.860701193664781594e-01,1.635245733940894342e+00,2.113846741101031768e+00,1.299512837342175375e+00,8.198103894070231101e-01,7.393937548072058163e-01,2.699811305130584427e-01,1.613400341040800656e+00,2.887599885838540992e+00,2.802488711169206503e+00,2.170384202106816485e+00,9.616861897005181126e-01,1.977162890206025925e-01,-4.263444841101706739e-01,-9.255254604749023617e-01,-7.904629917685803697e-01,7.143961892108863232e-03,-8.157085444737671720e-01,-1.114859524768772259e+00,-1.026958985283528136e+00,-9.354702907719123495e-01,-8.724090384193968761e-01,4.024094168057907317e-01,1.415790509789301987e+00,1.897829014241648959e+00,1.996680113167835557e+00,1.617414193009615531e+00,3.878342670493394095e+00,5.922235010946862666e+00,9.711101864626780156e+00,1.362406123270704406e+01,1.602960598566793848e+01,1.956973707442715593e+01,2.341051642416670830e+01,2.717195971877861993e+01,3.185173429033367754e+01,3.749137974974116361e+01,4.027231911686281052e+01,4.253331576607650533e+01,4.562581533413407442e+01,4.875496375614179811e+01,5.284071256572873665e+01,5.531816721755117072e+01,5.684270795342575866e+01,6.026418389358600791e+01,6.227110160531299954e+01,6.485307554963237919e+01,6.808662408084627771e+01,6.885075929561060093e+01,6.857961446259065497e+01,6.662208782780609795e+01,6.348183485648105062e+01,6.197257995059555924e+01,6.073934450627682935e+01,6.020577386450926838e+01,5.904114812035594184e+01,5.849831664721001800e+01,5.675845384485252509e+01,5.543831646793732659e+01
-1.321321237570280971e+00,-1.511306624512510854e+00,-1.511850918727612347e+00,-1.336895192211582151e+00,-9.126082385446954159e-01,-3.665009658733953679e-01,1.062945397154829025e-01,2.382209504439046499e-01,-4.303234810998554094e-01,-1.137274834021867909e+00,-1.232480939061692871e+00,-1.308807762284937448e+00,-1.354372624487234944e+00,-1.088921290953642318e+00,-9.126082385446946388e-01,-1.003344021071736814e+00,-8.250419340086092568e-01,-8.490770744829592154e-01,-8.221255831467304542e-01,-9.095566597461854919e-01,2.247716189996133984e-01,8.401816376968873623e-01,8.412883477528849685e-01,6.764268398661358317e-01,-7.451415064982189751e-01,-9.136881705602840631e-01,-1.010362697377303887e+00,-1.034158635595419096e+00,-8.579503326562701870e-01,-6.987574868962496133e-01,-4.223702508672456668e-01,-4.499434297116158277e-01,-1.331871018852562594e-01,2.113271716482711601e-02,0.000000000000000000e+00,1.555705287049997387e-01,2.382007477994018130e-01,4.126938486556367414e-01,2.866279656508995827e-02,-5.181858897658776497e-01,-6.351333959576191956e-01,-6.620237211974644431e-01,-7.269573052896399767e-01,-6.414699461857273910e-01,-7.147247595030855605e-01,-1.344985458849633941e+00,-1.353554108866756645e+00,-1.324681468463533962e+00,-1.215245472326512921e+00,-8.928260194776065362e-01,1.626839492271049681e-02,7.250766742708900647e-01,2.808999713872339932e-01,-4.048950248609488600e-01,-8.753554836579909848e-01,-1.453476173013804829e+00,-1.559279267145772696e+00,-1.512838889078706783e+00,-1.375988618758175352e+00,-7.140369801870151134e-01,-7.309891095937121053e-01,-7.114392225203909348e-01,-6.267794125842984787e-01,-8.145471572428711893e-01,-8.753554836579917620e-01,1.557053988338611139e-01,4.453817428214673635e-01,5.026519554213680907e-01,8.926313833545100607e-02,-1.003835988871887963e+00,-1.181998973880386883e+00,-1.260557004463433772e+00,-1.308647679857482871e+00,-1.213421462364331793e+00,-7.147247595030855605e-01,-7.861926219531629734e-01,-9.732715224892347639e-01,-9.046901575139163487e-01,-8.261889125236526743e-01,-6.234947419127359058e-01,7.116404342677790096e-01,1.250127862484692320e+00,1.485545576317435446e+00,9.745934062255018349e-01,0.000000000000000000e+00,3.092293680794467647e+00,6.611654508053629975e+00,1.067858099170176800e+01,1.470075989717451748e+01,1.896611872562868939e+01,2.164607865093504557e+01,2.448547196754626754e+01,2.895874133590108457e+01,3.313447931245737266e+01,3.851073669514673981e+01,4.225542487419208015e+01,4.505536704200539333e+01,4.872126289792411313e+01,5.119855646484657541e+01,5.402055675447750360e+01,5.536195032277932881e+01,5.586585049575813855e+01,5.892788702230151188e+01,6.130927310334917024e+01,6.392870402228785309e+01,6.867130974097338481e+01,7.111447387239651619e+01,7.222876063452193307e+01,7.050853170474057663e+01,6.769859753402677427e+01,6.512547580141074377e+01,6.297559275219159503e+01,6.305802232977192290e+01,6.310861638201150470e+01,6.392870402228785309e+01,6.146929778359452712e+01,5.927975401781576892e+01
-1.309995562170829242e+00,-1.564595143541770872e+00,-1.604487978869693077e+00,-1.636210215825089520e+00,-1.519110948360093749e+00,-1.320393703710472488e+00,-1.304968003246394170e+00,-1.225305683628674425e+00,-1.251914809557313601e+00,-1.511797618292537448e+00,-1.646307094214999767e+00,-1.772662324661726130e+00,-1.800989752913014330e+00,-1.634630650086928760e+00,-1.414332830330611968e+00,-1.552169536514187431e+00,-1.582944366782632395e+00,-1.676804988747996994e+00,-1.860861741083899012e+00,-2.016947118453970234e+00,-1.694370232856927450e+00,-1.581109309872567703e+00,-1.646857279012848174e+00,-1.623510591550634041e+00,-1.776935429613462958e+00,-1.754611141381024808e+00,-1.747243752502886549e+00,-1.693090558146840507e+00,-1.501853269995845341e+00,-1.324202169736591994e+00,-1.337542432911992041e+00,-1.457687202223568734e+00,-1.620976588585617773e+00,-1.829660655967476846e+00,-1.981219679441064141e+00,-1.954051080699567899e+00,-1.955747987654747000e+00,-1.933728733739140671e+00,-2.014177226777922325e+00,-2.000594337055322747e+00,-1.908620780639519010e+00,-1.830186447863507038e+00,-1.885961222483758970e+00,-1.883238505577591093e+00,-1.906128157416253632e+00,-2.203630688075840283e+00,-2.198847107447302829e+00,-2.126051318611609009e+00,-1.968465695148179151e+00,-1.692359316984866968e+00,-1.322700719745581344e+00,-1.093965121281828212e+00,-1.102910644173291876e+00,-9.233580421939198146e-01,-9.661024224821684880e-01,-1.450134656852382298e+00,-1.539796011592331926e+00,-1.376589256279753926e+00,-1.172971751810411689e+00,-6.866141103290149816e-01,-8.797830718710980547e-01,-8.970752110438554583e-01,-8.635975154733193104e-01,-1.076494324165525374e+00,-1.278778089349805747e+00,-1.049557269327055842e+00,-9.386234843880016943e-01,-6.287450715190885386e-01,-4.669839224723453808e-01,-8.462149773669194186e-01,-1.032798920525663577e+00,-8.509091204953845855e-01,-4.533351666840947369e-01,1.278974420832854064e-01,1.110517840228316011e+00,7.827721251009833736e-01,4.793880594216603508e-01,4.509732951155790426e-01,5.596928340621731834e-01,2.695866213714515625e-01,1.065191769060116922e+00,1.209583867622529896e+00,1.371425161828120576e+00,1.114389468296991925e+00,3.022488695381230772e-01,4.725792090815842172e+00,9.160226851237570855e+00,1.324245868239094115e+01,1.834074790400818955e+01,2.402834279415837315e+01,2.713246974443234194e+01,3.025128595264699882e+01,3.418822961490705836e+01,3.776718228538702249e+01,4.188490485180903988e+01,4.668814269335975098e+01,5.067861326288350199e+01,5.416599047644501042e+01,5.746451132970740616e+01,6.036499601553460792e+01,5.952944332049760590e+01,6.001331323819044883e+01,6.278718608498478915e+01,6.581914567078254663e+01,6.834429500851675243e+01,7.143889781232293501e+01,7.390437718759261543e+01,7.511895342499538231e+01,7.326912703460700982e+01,7.016225457653879971e+01,6.887417591921848725e+01,6.750796764065951550e+01,6.805455001276180838e+01,6.852582061468824293e+01,6.890894350602502527e+01,6.698896070499921507e+01,6.586487606242009463e+01
-1.629269291457512425e+00,-1.901681420100330255e+00,-1.975825568721451431e+00,-2.001272287597750221e+00,-1.902038219029237309e+00,-1.676009348968168666e+00,-1.627881951114438897e+00,-1.703375561835756669e+00,-1.741959171187364097e+00,-1.896446709100521266e+00,-2.116288315893661842e+00,-2.220220893655707961e+00,-2.188872278459075726e+00,-2.100094353034450467e+00,-1.879809651516570757e+00,-1.995854481495370258e+00,-2.075624176534135223e+00,-2.151041446770667331e+00,-2.391936594703590657e+00,-2.631306383720403819e+00,-2.457751154041630581e+00,-2.350858890753010577e+00,-2.369153874906313018e+00,-2.434203380747874679e+00,-2.507328967503669404e+00,-2.446503072089125652e+00,-2.425637851535932032e+00,-2.383263198132280714e+00,-2.238046015636721897e+00,-2.099494343869862778e+00,-2.156078752801127596e+00,-2.197546843454027066e+00,-2.356326212578431001e+00,-2.542559025469853573e+00,-2.642489589008620410e+00,-2.630511843571242014e+00,-2.636187698843150073e+00,-2.608219336069942607e+00,-2.617841119255905458e+00,-2.642276388377913232e+00,-2.586863601024611992e+00,-2.482510943465296993e+00,-2.565069908843709001e+00,-2.564937044205783945e+00,-2.560447015119744041e+00,-2.742848524765616247e+00,-2.697801359453619430e+00,-2.663955257393328502e+00,-2.540671073985578232e+00,-2.268650614601415594e+00,-1.991390721055684709e+00,-1.737573215587093545e+00,-1.438844858202584787e+00,-1.204281062828471693e+00,-1.281883743425333178e+00,-1.574671955503836429e+00,-1.593936549121381274e+00,-1.483469417367451637e+00,-1.423753086852304950e+00,-1.104789741224285970e+00,-1.133794494410771181e+00,-1.257805498525212728e+00,-1.335820167713004603e+00,-1.469722097247345038e+00,-1.682383153435628387e+00,-1.393665696794195163e+00,-9.930259878389999795e-01,-7.721595846014993603e-01,-5.813703730518350321e-01,-5.021751919208991000e-01,-8.221732406063827492e-01,-6.469418065181168354e-01,7.238797502439774101e-02,1.259992311551610289e+00,3.229368174219761745e+00,2.416647487932338745e+00,1.964245447093674546e+00,1.381023223654771259e+00,1.150364987563191166e+00,9.296406206398262206e-01,1.984589745141076111e+00,2.186077984255018425e+00,2.811609378823606509e+00,2.464523038369181407e+00,1.518196227991894798e+00,6.802783572938459145e+00,1.129358855598203881e+01,1.591406496443121732e+01,2.278776757322177815e+01,2.878218010060429677e+01,3.186071720041035249e+01,3.507857364709452241e+01,3.823379676927260107e+01,4.160152922114468765e+01,4.484840337545588085e+01,4.913587295260131071e+01,5.270197943407662677e+01,5.614044242325442724e+01,6.043069980841445243e+01,6.519631427629882126e+01,6.444377114310800891e+01,6.440358060717673538e+01,6.637357759703024840e+01,6.900124561041603499e+01,7.034759880788470809e+01,7.190917699650017880e+01,7.454303844985378191e+01,7.549422484845464965e+01,7.317138031431359479e+01,7.006939084777467031e+01,6.980282477426131038e+01,6.917119054753274554e+01,7.011203981502178806e+01,7.176457879427444198e+01,7.245416076057132670e+01,7.010527759940300996e+01,6.909815615163458347e+01
-1.867966132334577090e+00,-2.142066349014423388e+00,-2.274900435370620144e+00,-2.251724762595892937e+00,-2.184584817214377583e+00,-1.972220034214890783e+00,-1.944960362719437175e+00,-2.069422323566310506e+00,-2.190261553744300205e+00,-2.347315040099387851e+00,-2.468658061048341512e+00,-2.526155565234855072e+00,-2.529146395092142896e+00,-2.443438431064794525e+00,-2.296591912336346297e+00,-2.321193265214533064e+00,-2.340795510648815192e+00,-2.490271396641475121e+00,-2.668261030485855390e+00,-2.897815987196426857e+00,-2.870861183389886939e+00,-2.819092191862573760e+00,-2.776498784702384537e+00,-2.844157962840510923e+00,-2.934018849552180619e+00,-2.895415734235689431e+00,-2.875224951907176862e+00,-2.872966489441513893e+00,-2.842121564841337822e+00,-2.759595001654755464e+00,-2.805372852460257693e+00,-2.826580677051884205e+00,-2.905004904128572374e+00,-3.050308678255466699e+00,-3.202019764471701446e+00,-3.197979245123409253e+00,-3.190926121707772012e+00,-3.164290974974468096e+00,-3.129568734600445712e+00,-3.063401909348460350e+00,-2.976850865881422337e+00,-2.914180752145294484e+00,-2.948992941219537034e+00,-2.954162080322834338e+00,-2.928318225606759029e+00,-3.053793685313834327e+00,-3.041068868387342139e+00,-2.993439578719080174e+00,-2.914401789682342425e+00,-2.668938363577774808e+00,-2.350768331085634433e+00,-2.048893245160934740e+00,-1.711247923378889757e+00,-1.513826276638659873e+00,-1.535598420598892622e+00,-1.717610160014628295e+00,-1.668791775186207138e+00,-1.687395297072492806e+00,-1.690750085936561842e+00,-1.346673842124532783e+00,-1.351026311294112547e+00,-1.435538347711474039e+00,-1.466380064899061697e+00,-1.612555665305965391e+00,-1.752339985206103679e+00,-1.344116797320218604e+00,-8.428584582937356240e-01,-6.592744285140859084e-01,-4.011270001910807181e-01,5.725437176731445338e-02,-6.323318989774376897e-01,-6.313476725571572912e-01,1.095036465004963905e-01,2.043697957098029150e+00,4.828154832281997599e+00,3.928804431915640993e+00,3.389603998289036468e+00,2.807682443381591231e+00,2.069918327051631479e+00,1.893196884304850558e+00,3.053802618080055709e+00,3.906038493825601421e+00,5.215877908444991995e+00,4.853437342130388465e+00,3.645523054670171792e+00,9.081533736023533976e+00,1.466622857183261530e+01,1.999341392462164180e+01,2.645261009649093609e+01,3.153716822865699498e+01,3.430412107666521138e+01,3.808603021170959124e+01,4.146261045723270655e+01,4.397427539071046709e+01,4.631571720338837395e+01,5.030863466670943751e+01,5.378262251077325118e+01,5.786943733818241498e+01,6.292977745660007827e+01,6.805876868086444631e+01,6.791385449347899339e+01,6.823215459228212865e+01,6.935239505154339668e+01,7.074609110277106083e+01,7.263213038174195901e+01,7.387709376556036034e+01,7.571601638853890393e+01,7.663087339007421406e+01,7.436508087445521653e+01,7.130544267960074478e+01,7.052702562937618325e+01,7.034227939135389818e+01,7.120198187018358738e+01,7.355802467246458320e+01,7.511067127247100927e+01,7.321360130852404779e+01,7.191565048295601059e+01
-2.197344487287832493e+00,-2.347023727863001952e+00,-2.416245694869690652e+00,-2.398477142065649215e+00,-2.402039845746638758e+00,-2.221568061863189225e+00,-2.236773423381146486e+00,-2.285211868139819913e+00,-2.364314781310328684e+00,-2.603260797533830218e+00,-2.722448589346764702e+00,-2.779646329982156772e+00,-2.843576115579002472e+00,-2.744694644400362371e+00,-2.633815672456340629e+00,-2.655904125000796867e+00,-2.692805598522440835e+00,-2.857449509775236152e+00,-2.948777748456874459e+00,-3.091470560831880654e+00,-3.142595937838067233e+00,-3.198916854443364155e+00,-3.178416085359309751e+00,-3.194603658277970215e+00,-3.246174051144461892e+00,-3.250597127923571250e+00,-3.257682550857025738e+00,-3.237722473667274503e+00,-3.239431624228255036e+00,-3.216603105561206100e+00,-3.239763893503017744e+00,-3.303456043727389879e+00,-3.383364657134785514e+00,-3.478190370578808199e+00,-3.648161790863068354e+00,-3.651894147023443615e+00,-3.637598210381360442e+00,-3.604172222525604319e+00,-3.528810428505867236e+00,-3.435118937253339499e+00,-3.367432235016253994e+00,-3.301441547541971389e+00,-3.265013021867033238e+00,-3.263736884857199705e+00,-3.209501208829496743e+00,-3.262429924458837061e+00,-3.246857939205775700e+00,-3.147226332258511228e+00,-3.060899786542934820e+00,-2.873322201350070326e+00,-2.596656780905708395e+00,-2.393616766899223869e+00,-2.199021174989051364e+00,-2.080194749150853895e+00,-2.100475066631784404e+00,-2.169581684193530258e+00,-2.064610397450247881e+00,-2.003194777920425995e+00,-1.869334406310445562e+00,-1.571559341325068582e+00,-1.597769215662912634e+00,-1.594860889319295927e+00,-1.528575709718062781e+00,-1.626360191295064483e+00,-1.643008665920410172e+00,-1.291646140774410867e+00,-1.020258908613289828e+00,-7.983103147178471914e-01,-3.257216836376877200e-01,3.214891161551019505e-01,-3.824238896606139693e-01,-3.900480929156501797e-01,6.334970045046914855e-01,2.338705789946604607e+00,4.421801298558273530e+00,4.423591492583056173e+00,4.741468046979266049e+00,5.137175393664693779e+00,4.688522791749151430e+00,4.646133151705852171e+00,5.814908807178281513e+00,6.353768231870184025e+00,7.285577601570425443e+00,7.749282347405239690e+00,7.099262318023168206e+00,1.143923065998540523e+01,1.685898535481330640e+01,2.227238068442692764e+01,2.758196973110834094e+01,3.281305748819999479e+01,3.726543458890932214e+01,4.120033592679614287e+01,4.436073941471475024e+01,4.716217032113598151e+01,4.977304217559623112e+01,5.337858032998201452e+01,5.666355985217500546e+01,5.961339613098504486e+01,6.360901416223544658e+01,6.758834224068890251e+01,6.708585858455785456e+01,6.827747698432270340e+01,6.904440586388265899e+01,7.022244551138493307e+01,7.368562057267511989e+01,7.497108496436064229e+01,7.637122640913710825e+01,7.763172934189333318e+01,7.580585500371216767e+01,7.421764825898944196e+01,7.377731249168505201e+01,7.339248761133565324e+01,7.352303288729251562e+01,7.425837144161339154e+01,7.433686828480247755e+01,7.348805446759133986e+01,7.248120380714567546e+01
-2.522791976113269108e+00,-2.613751949569012911e+00,-2.584306963774105625e+00,-2.552990208232464919e+00,-2.572425579310870791e+00,-2.486087337648505979e+00,-2.462805533733688268e+00,-2.496418012400468012e+00,-2.607268700920170268e+00,-2.798117637644654820e+00,-2.957005906376362958e+00,-3.081564316383489377e+00,-3.210455764090422104e+00,-3.133834249444507947e+00,-2.965558977591176149e+00,-2.936696839312107343e+00,-2.928667613310015128e+00,-2.995896548708780305e+00,-3.121649533893266604e+00,-3.231329980632799970e+00,-3.315483348052081336e+00,-3.388422833749501262e+00,-3.395005734310559298e+00,-3.448544663339343952e+00,-3.477703023736405274e+00,-3.570926207335291203e+00,-3.657443473636191822e+00,-3.625613714175887736e+00,-3.633812011116962726e+00,-3.696932838516806541e+00,-3.669906774502248670e+00,-3.725339631694126297e+00,-3.813561362956838341e+00,-3.852546750992667413e+00,-3.979192776641262252e+00,-4.023992799822083910e+00,-4.004986853944568992e+00,-3.919308812723611091e+00,-3.785608906537191842e+00,-3.665574165026510567e+00,-3.609608790969287551e+00,-3.522334440953108992e+00,-3.449725320172255305e+00,-3.431131823793762692e+00,-3.373131047125037085e+00,-3.384064288784883079e+00,-3.327707399010488398e+00,-3.248313699260598320e+00,-3.151382264942729883e+00,-2.983181250958740982e+00,-2.849325336437732670e+00,-2.703977540814248570e+00,-2.608060131745868926e+00,-2.599786005141369483e+00,-2.636388369030815415e+00,-2.584899514043744961e+00,-2.481013859957531764e+00,-2.298134530277584187e+00,-2.097994964306310717e+00,-1.955116077563578303e+00,-1.904140452114475801e+00,-1.763822469811556992e+00,-1.516578803577155465e+00,-1.428779166263561162e+00,-1.312040471235051298e+00,-9.615180851019013986e-01,-7.606625529717326861e-01,-6.147283904706337676e-01,7.380174005845360763e-02,7.768486057568370073e-01,1.336868524070000674e-01,2.366560230465663411e-02,5.105573673119417899e-01,1.312263502602157406e+00,2.822801203179314822e+00,4.133001774857646637e+00,5.669050305587170158e+00,7.118593972749351018e+00,7.909162427234259773e+00,7.838276305953875145e+00,8.635324797034764188e+00,9.467943990285750289e+00,1.090705686045950884e+01,1.213030026486773494e+01,1.208399100765702272e+01,1.575118541116968629e+01,1.971402681697911774e+01,2.335898743629542196e+01,2.739641597808518725e+01,3.295422196003110571e+01,3.916651934063737883e+01,4.275869958650118718e+01,4.634569179995652632e+01,5.010681811057492752e+01,5.301559525221877323e+01,5.517130659276126892e+01,5.760937660285829764e+01,5.952457451641197395e+01,6.162699642087426355e+01,6.564414909947581123e+01,6.564627745640056844e+01,6.600193596391828521e+01,6.758901429560079066e+01,7.041139534699482283e+01,7.417373332450560497e+01,7.470273406827519125e+01,7.564601011779539874e+01,7.695370861579139898e+01,7.693496162142639605e+01,7.756080805701779468e+01,7.676014088557892023e+01,7.478831867365393293e+01,7.392635392397357919e+01,7.408703574006837300e+01,7.332013491037707809e+01,7.280266055804828795e+01,7.182410410926593158e+01
-2.852413765838225590e+00,-2.934261366097849599e+00,-2.855932090105770094e+00,-2.755171616217069630e+00,-2.721552289755275744e+00,-2.654814374083088513e+00,-2.538337494492937552e+00,-2.516677411122064001e+00,-2.624238877665308944e+00,-2.776804826969084594e+00,-2.971024629396539662e+00,-3.057563558429449380e+00,-3.176336728695018152e+00,-3.227869575547465342e+00,-3.139785208005902550e+00,-3.130361675027697910e+00,-3.113163852029735779e+00,-3.087871350123573055e+00,-3.207706146611073450e+00,-3.283436704189918398e+00,-3.348446232494898034e+00,-3.423848969993713354e+00,-3.473023347353535240e+00,-3.573201088467999220e+00,-3.625606695918953015e+00,-3.779134073321507081e+00,-3.899811723302974986e+00,-3.983442818446143896e+00,-4.103621217524512588e+00,-4.206168018255325158e+00,-4.152797767507015791e+00,-4.150766234321854320e+00,-4.188806980133816360e+00,-4.224108159112235583e+00,-4.348197447338896460e+00,-4.356295757322915740e+00,-4.269785534993149945e+00,-4.187684374048842528e+00,-4.063187928976702779e+00,-3.881674205888822726e+00,-3.814101779762308464e+00,-3.746625464715191534e+00,-3.683288511820307143e+00,-3.668684574997286951e+00,-3.628947367340395580e+00,-3.643418533873090226e+00,-3.601778899546081547e+00,-3.530161532248055067e+00,-3.421563010727942888e+00,-3.217592638688370421e+00,-3.120282057025913769e+00,-3.000513923416202822e+00,-2.936983985063597036e+00,-2.949888974469845770e+00,-2.921324680835959864e+00,-2.760122479199475176e+00,-2.631672831585517791e+00,-2.465280194821549475e+00,-2.342008413470281880e+00,-2.161675046554720314e+00,-1.952976683070508646e+00,-1.784075022193911009e+00,-1.453333850140139383e+00,-1.197676936894246591e+00,-9.184170819748769254e-01,-3.886725354781747632e-01,2.858958146977953405e-02,1.079910335371287028e-01,7.206311026218576998e-01,1.501269807631804731e+00,8.716397891555380806e-01,1.035007186154324854e+00,1.692010365887593348e+00,2.626577913934831976e+00,4.628727631493919858e+00,6.172775218178051304e+00,7.857028364099512885e+00,9.366077605052200994e+00,1.052059449960558091e+01,1.160179741250222740e+01,1.241044633540288977e+01,1.264396255588447993e+01,1.376347622476337484e+01,1.487310656537663967e+01,1.468237472962468182e+01,1.841835367613303731e+01,2.174016707708032570e+01,2.492253325293635768e+01,2.907513999269072613e+01,3.308013791687250205e+01,3.825528730860290239e+01,4.227523190178524715e+01,4.727192646942457799e+01,5.103800658492687603e+01,5.344301358201116159e+01,5.495095940912713672e+01,5.744701907885786341e+01,5.998742268980534931e+01,6.196775438273513004e+01,6.530303215050629717e+01,6.593849350137661247e+01,6.681564500648764238e+01,7.018511215018301641e+01,7.357448782600829418e+01,7.611414376664373549e+01,7.716903512250918595e+01,7.889791517002457510e+01,7.954805839961713332e+01,8.058099001214002044e+01,8.203611284461280206e+01,8.002713960148325611e+01,7.797432955924332987e+01,7.737404924996087630e+01,7.631777106847414416e+01,7.380794233230284362e+01,7.240811315599721354e+01,7.097479718966728512e+01
-3.045444724745174359e+00,-3.117887976543430639e+00,-3.060279325590578470e+00,-2.963533644696173752e+00,-2.938862556296701900e+00,-2.819909634979359758e+00,-2.640721296230811976e+00,-2.568436116214892984e+00,-2.625704887297587664e+00,-2.816256836865994817e+00,-3.087976305677686994e+00,-3.148513092333392827e+00,-3.177543244819638790e+00,-3.267019141978067864e+00,-3.298778924768145160e+00,-3.325258662149798816e+00,-3.316635021178504061e+00,-3.307939388624114851e+00,-3.392460349337277581e+00,-3.423489047153367881e+00,-3.442126435253134442e+00,-3.547856599382074982e+00,-3.655903913397327454e+00,-3.738898514659100947e+00,-3.807683980975025584e+00,-4.007315484820160201e+00,-4.141622280705307801e+00,-4.271460054814388840e+00,-4.416946918751023965e+00,-4.512906647892275913e+00,-4.471210718681329688e+00,-4.469930535818972928e+00,-4.537968283162017613e+00,-4.597707169037125396e+00,-4.684519047260159219e+00,-4.641911677616588960e+00,-4.516304414071125706e+00,-4.418234785231548223e+00,-4.335115947103044931e+00,-4.172657628117985240e+00,-4.050226918659882713e+00,-3.956869923118509380e+00,-3.938977127187111016e+00,-3.906411608137039693e+00,-3.855861341505173900e+00,-3.864964918897252577e+00,-3.835440240898716713e+00,-3.725840284245989675e+00,-3.575682877546824123e+00,-3.402699510338129674e+00,-3.344656882671781961e+00,-3.303498354651550173e+00,-3.232301811923988133e+00,-3.185082372052329358e+00,-3.157758905414535633e+00,-2.966357045824704830e+00,-2.779374990982433236e+00,-2.616974900468221676e+00,-2.536398761571900806e+00,-2.334358497391941789e+00,-1.988513559952294285e+00,-1.782844470026177852e+00,-1.486182022320645224e+00,-1.147481786832289963e+00,-8.324448034296124677e-01,-6.325650447650410513e-01,-3.970190773712740651e-01,2.014606869598103422e-01,1.024496120799530452e+00,2.050320571844160611e+00,2.233640340470426366e+00,2.749738527957632517e+00,3.459215089919379871e+00,4.034810996203926692e+00,5.638728189578118943e+00,8.124868618147086607e+00,1.062088027517441091e+01,1.169563835676870411e+01,1.218881647542977120e+01,1.434503187010890812e+01,1.591967764730635793e+01,1.592031281086246608e+01,1.577046521536804669e+01,1.612834959473922325e+01,1.632563349854773804e+01,2.027403400564006120e+01,2.410589412247111696e+01,2.770291983616447595e+01,3.141292376909859385e+01,3.427421276602876077e+01,3.961859018662168097e+01,4.451552113607889538e+01,4.911073860988361162e+01,5.251617884105504430e+01,5.531031007987481019e+01,5.700872376847450340e+01,5.923323755449577988e+01,6.076544476352517421e+01,6.218660190872992644e+01,6.480958727096174243e+01,6.723408248343876892e+01,6.974219334156569516e+01,7.242860761520906010e+01,7.430854152485805741e+01,7.625220818700123004e+01,7.855288300390387235e+01,8.162512496234522530e+01,8.194095011994177469e+01,8.172335490471142805e+01,8.357753702147992669e+01,8.334504905766279137e+01,8.235258698839608371e+01,8.073378119044031109e+01,7.716332090237557395e+01,7.349083143562897646e+01,7.141046570745703548e+01,6.990676638132892151e+01
-3.154694310757617082e+00,-3.191254769612747566e+00,-3.120652088309362249e+00,-3.013394380268647144e+00,-2.985914755002740950e+00,-2.920396954328566164e+00,-2.793010422099654111e+00,-2.767194257831667503e+00,-2.863455651880037145e+00,-2.948429433047952131e+00,-3.139882498390646592e+00,-3.292046163805951497e+00,-3.348100947487264278e+00,-3.393836204684224533e+00,-3.461383665398621634e+00,-3.549382014282302489e+00,-3.577425950889197015e+00,-3.578918669323766455e+00,-3.627110486631601294e+00,-3.642950943249605000e+00,-3.630839765841107791e+00,-3.676771302276764075e+00,-3.755580787331004533e+00,-3.883656870861547539e+00,-4.024989977350060144e+00,-4.269986204166681176e+00,-4.420842521268297354e+00,-4.539360029075480973e+00,-4.658170407951165437e+00,-4.728858348968249636e+00,-4.709894403164224919e+00,-4.684499375346729444e+00,-4.756101116998761036e+00,-4.842541251962203752e+00,-4.902374228685842716e+00,-4.879080789003297447e+00,-4.784181638070100107e+00,-4.631909433974549017e+00,-4.544324970375176242e+00,-4.424145469458746760e+00,-4.262896432038619565e+00,-4.118908299814394880e+00,-4.114781005186617158e+00,-4.098311489768044602e+00,-4.070592040131273848e+00,-4.028023277277448244e+00,-3.961296786761664190e+00,-3.891424591816551981e+00,-3.781977148852743831e+00,-3.626342135146813472e+00,-3.586060104426277650e+00,-3.563642023716492968e+00,-3.435112553432460025e+00,-3.325004820146831186e+00,-3.288529565993898007e+00,-3.079665739689200876e+00,-2.850720022065308168e+00,-2.631287012992849839e+00,-2.527351012355616433e+00,-2.457749720128090232e+00,-2.179573699446261781e+00,-1.908566168783331962e+00,-1.608094226386524328e+00,-1.154702147793133626e+00,-7.283150672707731088e-01,-6.581747024873284557e-01,2.164167692843859542e-02,3.946787577229113331e-01,1.034046475597692805e+00,1.942404440707594659e+00,2.627835533758238640e+00,3.612109921632455034e+00,4.406952560227865412e+00,4.999131899953598079e+00,6.624619340785465660e+00,8.895280194207337843e+00,1.091582236625539970e+01,1.320592967673936080e+01,1.476151871490871947e+01,1.584893372072812134e+01,1.643129217289687460e+01,1.755122435452398477e+01,1.743601885816580221e+01,1.813597533727604372e+01,1.988610648091366784e+01,2.304132034081796832e+01,2.631544711835358896e+01,2.995781745139191443e+01,3.281167350757117163e+01,3.568764980279206611e+01,4.189350050357771948e+01,4.738963444810180192e+01,5.126493008395281947e+01,5.415828799610729760e+01,5.719658335450820630e+01,5.842357307731271732e+01,5.970104230512585275e+01,6.146931277089993273e+01,6.359322591461948804e+01,6.553792989928399493e+01,6.917076516563948019e+01,7.297537194510012171e+01,7.460613635950562639e+01,7.629628065326190267e+01,7.898858624285851704e+01,7.942750974774709505e+01,8.070532258781717871e+01,8.271865775174713065e+01,8.328419867645726526e+01,8.424092187836140511e+01,8.510966687115951856e+01,8.516559073704462435e+01,8.248759181182762745e+01,7.857611211513530236e+01,7.589181846006246701e+01,7.236467377551177549e+01,7.003897519035157870e+01
-3.166983597170101472e+00,-3.162605129928156344e+00,-3.115254767242591871e+00,-3.058616774294861784e+00,-3.025467916145700986e+00,-2.954365704824733374e+00,-2.908761265399353313e+00,-2.999836329500050525e+00,-3.120930496299326506e+00,-3.195872070199258896e+00,-3.264906082479118066e+00,-3.409684536809531874e+00,-3.548794658652535627e+00,-3.618315922595539469e+00,-3.664947122225421960e+00,-3.775085281273735660e+00,-3.884031138167086006e+00,-3.881911482527042434e+00,-3.837605228374482369e+00,-3.852289875056492896e+00,-3.849291111556691458e+00,-3.843704501122072070e+00,-3.897790659280392589e+00,-4.057382497488034367e+00,-4.274952560390833156e+00,-4.514918891808292756e+00,-4.638495320813364131e+00,-4.766570879616298662e+00,-4.888212537064235974e+00,-4.924711579686002594e+00,-4.912258573067294520e+00,-4.878797780014307861e+00,-4.931273594625794843e+00,-5.046668832259149085e+00,-5.143355953917532197e+00,-5.117028736320225590e+00,-5.046003948414274909e+00,-4.922625454911604415e+00,-4.812156524401881796e+00,-4.684237434698577118e+00,-4.539819594394847613e+00,-4.397165749806136503e+00,-4.347135330712230683e+00,-4.287915548934964072e+00,-4.258194917595298001e+00,-4.157836090808070040e+00,-4.056212184852555858e+00,-4.041501623605313398e+00,-3.956073782400291172e+00,-3.808780254834343015e+00,-3.770031843555820661e+00,-3.709032878275857037e+00,-3.554729502139838182e+00,-3.376207857079104535e+00,-3.273361924632742781e+00,-3.051571509575930818e+00,-2.839948478476165938e+00,-2.660469551913409614e+00,-2.500453696262930237e+00,-2.494564291318142946e+00,-2.388392385251353112e+00,-2.177980639550443964e+00,-1.844483847208921112e+00,-1.384918731125853508e+00,-9.530824095364780479e-01,-9.765745130188605572e-01,-7.454938914782641701e-01,2.118348581200528435e-01,1.350142352343880470e+00,2.479858052539220648e+00,3.227231299360127093e+00,4.465671775810178268e+00,5.888076390477561262e+00,7.161795273078170432e+00,8.442113397255425866e+00,9.755183294701577523e+00,1.146079781985415735e+01,1.429490961677175243e+01,1.633701828096238273e+01,1.664321466445725051e+01,1.581955052253905869e+01,1.745089537406021662e+01,1.835588754998488881e+01,1.977318437360867520e+01,2.232898053267572891e+01,2.564676901181645974e+01,2.885405804762268289e+01,3.226144961090174235e+01,3.535023846462815555e+01,3.804159563727603910e+01,4.403799113796043230e+01,4.956045039141945807e+01,5.386192458866159427e+01,5.643095475716735621e+01,5.882167516354198966e+01,6.008940618273762624e+01,6.155145741416418304e+01,6.396999189356962034e+01,6.611821857108132861e+01,6.857471126001726702e+01,7.246262146553286243e+01,7.645201240810058607e+01,7.845067376184994146e+01,7.945702275249098534e+01,8.015713673152248475e+01,7.967994048465217816e+01,7.981746064152441988e+01,8.078752503572617627e+01,8.227950299977426596e+01,8.322036024575551494e+01,8.409753953280433336e+01,8.495167060464041242e+01,8.433481103898456865e+01,8.099436904165526130e+01,7.682861188874680636e+01,7.305731350107487287e+01,6.976512164993913245e+01
-3.087303284152977501e+00,-3.125432892956282238e+00,-3.184929863389984295e+00,-3.213116954785558033e+00,-3.210512165079267621e+00,-3.118831305973162049e+00,-3.131016004074156367e+00,-3.240460274851916012e+00,-3.304311351766746174e+00,-3.477944531027782560e+00,-3.518047331020432544e+00,-3.534163032422652950e+00,-3.635074887581743130e+00,-3.746370778385179623e+00,-3.792734043917574738e+00,-3.918847093926511427e+00,-4.095968832286217776e+00,-4.198334233411135763e+00,-4.181787568999619786e+00,-4.151931458779324124e+00,-4.101744589955088394e+00,-4.110190424849653468e+00,-4.199559850902964797e+00,-4.315876488110276021e+00,-4.534809665665620493e+00,-4.763087231821011791e+00,-4.855349500824139852e+00,-4.914518217140850354e+00,-4.963815884342450246e+00,-4.965593599068984787e+00,-4.987805085430657925e+00,-5.026181512370190951e+00,-5.139755177620081383e+00,-5.260663374401112868e+00,-5.370883529726824257e+00,-5.332831889576009843e+00,-5.274238711045755146e+00,-5.185943861331589133e+00,-5.064520427392093183e+00,-4.916576146984673379e+00,-4.757374008049886527e+00,-4.617020279222560752e+00,-4.528032250320986662e+00,-4.441037388054589030e+00,-4.421364271475986207e+00,-4.304917955546337716e+00,-4.210021983188769745e+00,-4.153875050615392972e+00,-3.993498556393757060e+00,-3.859019771604859095e+00,-3.826559460073564178e+00,-3.765096752399204938e+00,-3.622070917107532040e+00,-3.408946381058291397e+00,-3.275088479013255505e+00,-3.010176330413238954e+00,-2.781335274405531077e+00,-2.697682591336152846e+00,-2.544631775453809031e+00,-2.475488718983216874e+00,-2.403801081703420106e+00,-2.321352241134057248e+00,-2.046097000507802299e+00,-1.741679112159296938e+00,-1.542600876031712698e+00,-1.485501876838489110e+00,-1.236853314321368691e+00,-8.260930992200210543e-01,2.383735978697534563e-01,2.119439040669408136e+00,3.728369973988500785e+00,5.001039626909115299e+00,6.834866866373634053e+00,8.188733013392035076e+00,8.406087124357791041e+00,9.587589386658812884e+00,1.188691011015450805e+01,1.383178790782868361e+01,1.486527410522833925e+01,1.610884445615785054e+01,1.609487030545269093e+01,1.741031094156129555e+01,1.849017788266718654e+01,2.083227317654280597e+01,2.441578209758970885e+01,2.855329044009784667e+01,3.237630592809435370e+01,3.630598353163826175e+01,4.043231103531758208e+01,4.373510981603980952e+01,4.982295148980637123e+01,5.415675602083018703e+01,5.762258409757948385e+01,5.968271738047758390e+01,6.123450321250393813e+01,6.262395331578118629e+01,6.435482398038080021e+01,6.753921205132027694e+01,6.981701723424704653e+01,7.303496148357271522e+01,7.679132772646083538e+01,7.960008896210531759e+01,8.058934886020570332e+01,8.134453101786449736e+01,8.048040732926340013e+01,7.952831354371099337e+01,7.896927947816979554e+01,7.838391588180503788e+01,8.027083275200125456e+01,8.221136742685746412e+01,8.472798594631282754e+01,8.489899348986432415e+01,8.486653379981221690e+01,8.283692093299404746e+01,7.790157880108148447e+01,7.394326749143030497e+01,6.974004631159596101e+01
-3.073908743474330851e+00,-3.167955819923600203e+00,-3.260447767633535499e+00,-3.331881414457419588e+00,-3.322016273384963192e+00,-3.267041582227997232e+00,-3.337842313532699556e+00,-3.466824451135906759e+00,-3.564034940344911195e+00,-3.712188659270951430e+00,-3.767575612247312744e+00,-3.828511821420145012e+00,-3.892930718943740764e+00,-3.954991618210846216e+00,-4.015683282095891649e+00,-4.106231039961533824e+00,-4.206166516495254193e+00,-4.308909588261412793e+00,-4.324421335983052117e+00,-4.315568663750442902e+00,-4.304087100072580441e+00,-4.299349222896287515e+00,-4.361149644579096929e+00,-4.468386796594434607e+00,-4.632588533276776666e+00,-4.813826410092891805e+00,-4.894188386792822421e+00,-4.933465633171686626e+00,-4.961074057236580792e+00,-4.988716944488746918e+00,-5.099789591862962546e+00,-5.205901701353272237e+00,-5.345901844765796440e+00,-5.463753709492042532e+00,-5.575945648014611677e+00,-5.493526814381905155e+00,-5.390763222262561882e+00,-5.294440121645422437e+00,-5.160821696974084105e+00,-4.994129001654796340e+00,-4.833215188971518472e+00,-4.711204060473232147e+00,-4.624658489283818064e+00,-4.550156406101297790e+00,-4.527218157598005277e+00,-4.394776960911473296e+00,-4.239757252339624749e+00,-4.106477354459751261e+00,-3.939574205949200270e+00,-3.801411013039062148e+00,-3.726854349194014926e+00,-3.626280646062888025e+00,-3.501401022267832008e+00,-3.372053066792840337e+00,-3.272501013124664571e+00,-3.036592597487163925e+00,-2.833808379216855577e+00,-2.809968378630844477e+00,-2.747114219269243041e+00,-2.722040398369600656e+00,-2.623198360048802691e+00,-2.518686690514776227e+00,-2.309783613807731228e+00,-2.054922606015714415e+00,-1.845894796261068338e+00,-1.517356512376528244e+00,-9.336378957457598382e-01,-4.599844925185921918e-01,2.198141596695321331e-01,1.508440621484251398e+00,3.230050271778210469e+00,4.864058295415958355e+00,7.065427642564445776e+00,8.180960005138004476e+00,8.499598159505261208e+00,1.036858314294335415e+01,1.235516287465911489e+01,1.398859554625018475e+01,1.533618757174347280e+01,1.757548605332945968e+01,1.899963359468918966e+01,2.018239454489245333e+01,2.071084395075108375e+01,2.265540813035459777e+01,2.642540626366190537e+01,3.091996697737775079e+01,3.434357577545341655e+01,3.858875767613434249e+01,4.296613042016935680e+01,4.632973986626856089e+01,5.273237531812509360e+01,5.750829965293748103e+01,6.168824150612270074e+01,6.371054622925999666e+01,6.515826959670037866e+01,6.772327334727738446e+01,7.009998520157901680e+01,7.276908134514891913e+01,7.567189573668045455e+01,7.744801784163962566e+01,7.921761901046203036e+01,8.157416259311078477e+01,8.150067195197799208e+01,8.223005396654588139e+01,8.236764029554684896e+01,8.095031221155052492e+01,7.960242054117964017e+01,7.848276505332495390e+01,7.917157260982506273e+01,8.026140625854007737e+01,8.254509881216966960e+01,8.317753172666664341e+01,8.300439503018526466e+01,8.168916900655976576e+01,7.941657824626736328e+01,7.544241533710636816e+01,7.198646114744528290e+01
-3.004812667133825776e+00,-3.132153204439021899e+00,-3.235491132838422157e+00,-3.377188039202377645e+00,-3.386201154566518490e+00,-3.351140986580675385e+00,-3.463701123985828634e+00,-3.589844342691669077e+00,-3.696992808196402969e+00,-3.841348238548877969e+00,-3.941881526316477924e+00,-4.036911265089933920e+00,-4.063757554375153624e+00,-4.075417182468231481e+00,-4.143587916571790153e+00,-4.216833047027240156e+00,-4.258818911135992202e+00,-4.326903991726473109e+00,-4.337335180141059787e+00,-4.359183810778239909e+00,-4.387233126207237710e+00,-4.425409924922266924e+00,-4.516567230894717788e+00,-4.625128051652799499e+00,-4.746798999272754394e+00,-4.885483684708969321e+00,-4.957327661817656939e+00,-5.025024865699043275e+00,-5.078590638990550410e+00,-5.081418028435669143e+00,-5.210673033774360086e+00,-5.335417635133761216e+00,-5.457046663336272196e+00,-5.605751616580815444e+00,-5.751911300128793592e+00,-5.676854270583745254e+00,-5.583074583346093966e+00,-5.480045866977179436e+00,-5.336345428896204446e+00,-5.164152316288730837e+00,-5.013965261456304390e+00,-4.869439016256306374e+00,-4.742803985114591114e+00,-4.636584856245341335e+00,-4.565784072677523397e+00,-4.478607732266033814e+00,-4.329849165332880112e+00,-4.169465554162968601e+00,-4.049355527574469704e+00,-3.917997312979508262e+00,-3.802365940218726870e+00,-3.665769672141832025e+00,-3.564626142602004943e+00,-3.410368386219991166e+00,-3.225844163174573787e+00,-3.115478925660696063e+00,-3.043440018024772264e+00,-2.995131758032458347e+00,-2.931489565147725518e+00,-2.884606382300124672e+00,-2.737619072261104680e+00,-2.558003389509737158e+00,-2.337133661834358556e+00,-2.073772010498167617e+00,-1.798237199902791739e+00,-1.481943095791965037e+00,-1.005581033722873219e+00,1.666682176421589723e-01,1.042409944892820572e+00,2.008446578612717026e+00,4.133739787666592669e+00,5.575278204703457696e+00,7.500844267453126157e+00,9.110492067911595271e+00,1.028753621687080688e+01,1.277133513578424306e+01,1.430662458891265132e+01,1.589950634014494923e+01,1.785335451832580489e+01,1.906247744544311473e+01,1.990086254822947964e+01,2.186882675236003237e+01,2.277600313570562207e+01,2.435086919728947663e+01,2.835467655862013103e+01,3.317146387715731493e+01,3.614134395693376689e+01,3.989345777965115758e+01,4.367960178001117555e+01,4.676220406303804111e+01,5.269534823838732507e+01,5.752306203732551637e+01,6.203047114170824727e+01,6.596052911676376596e+01,6.928422090092965391e+01,7.187363980569027433e+01,7.371659998100352595e+01,7.501009227195628171e+01,7.769181099877036445e+01,7.950539295793488748e+01,8.097610788172701746e+01,8.319124478799426470e+01,8.236714166542643056e+01,8.179811539947718302e+01,8.166855107471793929e+01,8.089439219911420764e+01,7.985884405015823972e+01,7.887410145306326115e+01,7.903633192829877885e+01,7.941541894680820235e+01,8.098986917914284334e+01,8.238320836728780705e+01,8.237211763689822419e+01,8.081113999130515424e+01,8.025224426573058167e+01,7.687354556289551510e+01,7.477438672202873704e+01
-3.014802973083980486e+00,-3.140129082029418761e+00,-3.235861526118470888e+00,-3.399513349072238011e+00,-3.486055343080412428e+00,-3.473143432304875766e+00,-3.530715765488195768e+00,-3.655581520874639168e+00,-3.766962129297680484e+00,-3.928814860096386585e+00,-4.071721670021794637e+00,-4.148064777739026709e+00,-4.141233072632012124e+00,-4.131270228612651252e+00,-4.190558235490164485e+00,-4.228416395891518853e+00,-4.224217922665667757e+00,-4.270269781644569385e+00,-4.340188078566290741e+00,-4.416021180263483892e+00,-4.459961740354940751e+00,-4.566471759744048065e+00,-4.714426094368477926e+00,-4.789074343919740073e+00,-4.859291868966207240e+00,-4.985597658417000311e+00,-5.076165210740510858e+00,-5.136028406691266035e+00,-5.212126313371024722e+00,-5.229755701340785379e+00,-5.325156996309611479e+00,-5.475675600486550110e+00,-5.585465481375544883e+00,-5.725107643660781953e+00,-5.901725103080758039e+00,-5.849840512904636469e+00,-5.752228059191515364e+00,-5.638151715778700890e+00,-5.496120624206693783e+00,-5.332567881071659244e+00,-5.201853641723611865e+00,-5.029899906084247974e+00,-4.877133761361879927e+00,-4.769578034503708430e+00,-4.686060151696279874e+00,-4.589484832669586289e+00,-4.447739495739296167e+00,-4.314536582837126488e+00,-4.211052023866573180e+00,-4.052408409339960826e+00,-3.931842193597606006e+00,-3.832064289818602809e+00,-3.702112156200902060e+00,-3.504573827693517885e+00,-3.262018892179498586e+00,-3.197474156965484759e+00,-3.211689446926127456e+00,-3.152444694653056434e+00,-3.071175199973079639e+00,-2.933831827375582790e+00,-2.689260071350729309e+00,-2.485786671687044702e+00,-2.261449637232654020e+00,-2.043032848163931270e+00,-1.803528993344351905e+00,-1.362545603033742614e+00,-8.215405892616053363e-01,4.981050040237311460e-01,2.086206533632672055e+00,3.104007858854360258e+00,5.155117617291080201e+00,6.168790488205762479e+00,7.035353554276031929e+00,9.621051222729407826e+00,1.206922620937449508e+01,1.415840669139224417e+01,1.629148526514720885e+01,1.787624651610625648e+01,1.915983209069662863e+01,2.028665749626125603e+01,2.070705955161200507e+01,2.225203281063863869e+01,2.422484514101101993e+01,2.740997585240615209e+01,3.096580124217892660e+01,3.451165191656885867e+01,3.810704307881593422e+01,4.131539868802330773e+01,4.437374167116950474e+01,4.763377873244326111e+01,5.229708861465908143e+01,5.696552161544376247e+01,6.123454084830820676e+01,6.660696069022912980e+01,7.132854142647393303e+01,7.302664203436108892e+01,7.434507698760171479e+01,7.575424147307579403e+01,7.822033670151071760e+01,8.011537218970104846e+01,8.149595125257148709e+01,8.277615896413510654e+01,8.257947803175173362e+01,8.220046071513478125e+01,8.209830481894385912e+01,8.183459110005971127e+01,8.103792740804642847e+01,7.998299057602307016e+01,8.011453247099309749e+01,7.974794836725658342e+01,8.038060246356299388e+01,8.189236853724456466e+01,8.242080306176785598e+01,8.176873687252944478e+01,8.188309947974265413e+01,7.917906936158891540e+01,7.620756742711188281e+01
-3.158373337762525157e+00,-3.267358082595255286e+00,-3.343266644205197924e+00,-3.407826803922201275e+00,-3.456178738374324766e+00,-3.512633888219711675e+00,-3.565795902749424595e+00,-3.666859905062817226e+00,-3.760932888715669886e+00,-3.876143195914163453e+00,-4.016244999964656337e+00,-4.147487391899014497e+00,-4.176783567177174028e+00,-4.156030579646366796e+00,-4.217329498223987727e+00,-4.260819418642316059e+00,-4.251043235606195125e+00,-4.278291493463810546e+00,-4.410448065501411108e+00,-4.559985657090273037e+00,-4.633189299525368732e+00,-4.706345792625172386e+00,-4.814326248378766770e+00,-4.905334403789393782e+00,-4.973443690806126583e+00,-5.055217809622493341e+00,-5.132214027438812387e+00,-5.200467381929835042e+00,-5.313844866336456363e+00,-5.411995562118060654e+00,-5.522732759375618805e+00,-5.682372486683829216e+00,-5.767007732449550339e+00,-5.865351545515533616e+00,-6.039827592570691905e+00,-5.977569622868172061e+00,-5.842579980155666597e+00,-5.729570664457599882e+00,-5.600949944711044459e+00,-5.431876162073180581e+00,-5.304882077508585425e+00,-5.159544846381066030e+00,-5.037928679575054858e+00,-4.933063814531797320e+00,-4.841535362772438233e+00,-4.748403879096668057e+00,-4.626629355435168733e+00,-4.473916857142599568e+00,-4.338198332133608837e+00,-4.164997666153493761e+00,-4.044888392618918971e+00,-3.957909566536465640e+00,-3.777741452671039113e+00,-3.640846878068898285e+00,-3.457376019287273117e+00,-3.343272546880747598e+00,-3.340865553385334863e+00,-3.234371469115891351e+00,-3.096596107050050950e+00,-2.950127610126871858e+00,-2.737940904449989610e+00,-2.522531869977885144e+00,-2.309985128718724301e+00,-2.048360080151427010e+00,-1.731631130498481719e+00,-1.056302254777317540e+00,1.257451409696004052e-01,8.773689556733095252e-01,2.418278220982657434e+00,3.064581299273549053e+00,4.600477585206625974e+00,6.666661686865183789e+00,8.078138770486171794e+00,1.001144110723287284e+01,1.195789268474595346e+01,1.362999553321595592e+01,1.636849905079677470e+01,1.882313500669713591e+01,2.033472281156840822e+01,2.230151302924494416e+01,2.327959950930652155e+01,2.410893942160160464e+01,2.688876290228830612e+01,3.051301419624339673e+01,3.231591269389134169e+01,3.517350998405984797e+01,4.003977806978018350e+01,4.376321471078171754e+01,4.718334284648512522e+01,5.098077044562168680e+01,5.432736573983166295e+01,5.839278585079122053e+01,6.196154439689991733e+01,6.613460793824393136e+01,6.954473000349889844e+01,7.275078450262513741e+01,7.597628088984909311e+01,7.717734763858786096e+01,7.910118543203769548e+01,7.985961082441393444e+01,8.012043802065274178e+01,8.071525894074251539e+01,8.139578366720732561e+01,8.185679768685241697e+01,8.243225080219760059e+01,8.281672446778388519e+01,8.239611393238237724e+01,8.133778494794378844e+01,8.150619617790755456e+01,8.094937371674622284e+01,8.058238336969080251e+01,8.074260870738864071e+01,8.033682955182169394e+01,7.999960458734801705e+01,8.019098165049875604e+01,7.982015022217412081e+01,7.761028066909909739e+01
-3.326953109864667191e+00,-3.354703075902571552e+00,-3.408716364274915644e+00,-3.407330374667481010e+00,-3.397376065802379941e+00,-3.471504237393370218e+00,-3.537786426610420865e+00,-3.571916476903505888e+00,-3.616059875959791281e+00,-3.725402402367905097e+00,-3.879163338168456043e+00,-4.035674659423175825e+00,-4.141095409808925432e+00,-4.134173442730885384e+00,-4.133753214638850260e+00,-4.183088144312785417e+00,-4.238902052163031620e+00,-4.287850390097219133e+00,-4.411978322156575594e+00,-4.601357255201934393e+00,-4.744670039997911815e+00,-4.855897344807051930e+00,-4.961872247754614662e+00,-5.062576686310642060e+00,-5.138370946516398696e+00,-5.178864186612428533e+00,-5.207070930344085191e+00,-5.321326948627328690e+00,-5.482563961629868921e+00,-5.630453712425422808e+00,-5.738455735376075673e+00,-5.851868274114437440e+00,-5.917100586113733129e+00,-5.999188961460251157e+00,-6.124598392509739142e+00,-6.041391596594170466e+00,-5.925866737623280756e+00,-5.837915194531150043e+00,-5.736427061562679341e+00,-5.583056698777665972e+00,-5.461810088689047049e+00,-5.336473006774486549e+00,-5.214462371067040358e+00,-5.087758100206910328e+00,-4.975212396971033790e+00,-4.942738595235728560e+00,-4.868446631768693855e+00,-4.680071159150308802e+00,-4.518905397350349240e+00,-4.381711895464714956e+00,-4.249865249154559876e+00,-4.087955108849246066e+00,-3.919730930360269205e+00,-3.794384386766925576e+00,-3.662591157816635246e+00,-3.572152103108317878e+00,-3.483328065263914475e+00,-3.344511951075718859e+00,-3.091716045285576531e+00,-2.844047520482178459e+00,-2.694908445411987596e+00,-2.477639079712918413e+00,-2.282787886385114984e+00,-1.920704065170683927e+00,-1.425149144227156883e+00,-5.867374490945312937e-01,7.685780906492102327e-01,2.143589834751875145e+00,3.389579473136959287e+00,3.649235143351928556e+00,4.805066916648782716e+00,7.008892130694815314e+00,8.959932696491543780e+00,1.046886831835809772e+01,1.273611085712100532e+01,1.478804313584922880e+01,1.736938970890009060e+01,2.023044511418195057e+01,2.251465103978512872e+01,2.460848670861188836e+01,2.590920011931176958e+01,2.645873946861481230e+01,2.872135710094804040e+01,3.191058314226293646e+01,3.355145238844593081e+01,3.697775997773243972e+01,4.112306473884164859e+01,4.569690540796019462e+01,5.013900842494289378e+01,5.277284129331574292e+01,5.467420845025120713e+01,5.748578631731393074e+01,6.016922786468669671e+01,6.311370051954213523e+01,6.580232967261305532e+01,7.038493313879675384e+01,7.432491484731767173e+01,7.578104699491598240e+01,7.744764710544102115e+01,7.773900057778013206e+01,7.769147808539014477e+01,7.803310535099154777e+01,7.960283081692396934e+01,8.083695688279657077e+01,8.130578633232772745e+01,8.305864192244959554e+01,8.425444343727458829e+01,8.365664424003857391e+01,8.389952635697285643e+01,8.438560995242755780e+01,8.267609530408847718e+01,7.998660434689014664e+01,7.800778320612216987e+01,7.759032623334192635e+01,7.786190705100898413e+01,7.934872354394516947e+01,7.956536543708726583e+01
-3.296797460574963701e+00,-3.282655568191678253e+00,-3.346652676603856236e+00,-3.331201381878451606e+00,-3.307583366562623972e+00,-3.358641399814460637e+00,-3.418870214811474906e+00,-3.503169076848318131e+00,-3.630027922802052220e+00,-3.810553549293886011e+00,-3.921338238253796238e+00,-3.996632972323754363e+00,-4.087712285546445834e+00,-4.116963083217325625e+00,-4.083733673167077249e+00,-4.100966060232609678e+00,-4.164293525544378483e+00,-4.292693421055505887e+00,-4.442208119077670325e+00,-4.618948354033040715e+00,-4.786148503134842080e+00,-4.910765845090868886e+00,-5.008599400344765584e+00,-5.089595295721206725e+00,-5.159710850735807597e+00,-5.272135564770625393e+00,-5.343101878931163284e+00,-5.441851607323298978e+00,-5.573554343684469004e+00,-5.703075063687057522e+00,-5.796803732347587612e+00,-5.912420391087628957e+00,-6.008369775463517470e+00,-6.123253563497985219e+00,-6.253243493045210322e+00,-6.172480114193510836e+00,-6.091040493480244677e+00,-5.998372736852791931e+00,-5.884518490032120575e+00,-5.739257292292173851e+00,-5.598974246762368878e+00,-5.460682785285019492e+00,-5.306773126176067557e+00,-5.179204165536704707e+00,-5.069697834491596389e+00,-4.995857733131105149e+00,-4.871606465484209281e+00,-4.714544617094970747e+00,-4.608917930820484621e+00,-4.485299309802849521e+00,-4.324708909303771165e+00,-4.161755146648685511e+00,-4.083269505929859378e+00,-3.952913558688671003e+00,-3.855566174448102679e+00,-3.761008387115171381e+00,-3.599472923918176193e+00,-3.454121868950462915e+00,-3.155180600608396446e+00,-2.835104582354658120e+00,-2.634233198401918497e+00,-2.368115119633522170e+00,-2.130878231786256016e+00,-1.826440098487727592e+00,-1.376013547273565951e+00,-7.348709266209996205e-01,5.371275588557820058e-01,1.581790583043948706e+00,1.961979272499204230e+00,2.363493244114555747e+00,3.356111583220342975e+00,5.085015602034308912e+00,6.855804321812578372e+00,8.442350421251086701e+00,1.144756027920474573e+01,1.380714472174980223e+01,1.606780100573147507e+01,1.817346173817766797e+01,1.995458106773383733e+01,2.186214605770713248e+01,2.413455841578654315e+01,2.646426271926282325e+01,3.047118348947824273e+01,3.502870920817507994e+01,3.854748616523689009e+01,4.307052460171255603e+01,4.688667034804647216e+01,5.044623137007955194e+01,5.386041619895477339e+01,5.628868301437228183e+01,5.783174952531042123e+01,5.915241308546436017e+01,6.042367137388675502e+01,6.208354729055035648e+01,6.369298844130938164e+01,6.793178073275190343e+01,7.128101795958693288e+01,7.285324736415414293e+01,7.457409287552928845e+01,7.554060899636154147e+01,7.573384683059444455e+01,7.615319426845357498e+01,7.876720364822496379e+01,8.166226672101882400e+01,8.274661263706776992e+01,8.393000006965473858e+01,8.516014760637170866e+01,8.533373651356357925e+01,8.632261860729299485e+01,8.737479836786179987e+01,8.347843805610128243e+01,8.041460607974941865e+01,7.879029271912571630e+01,7.707389018760144950e+01,7.568328260222018855e+01,7.557021173899495636e+01,7.512234760461785754e+01
-3.269278117704626396e+00,-3.320642320983031137e+00,-3.381556409761563131e+00,-3.345856523445433606e+00,-3.237670535423523788e+00,-3.273153676466003414e+00,-3.396615306564338077e+00,-3.519159776256418404e+00,-3.652929545106205822e+00,-3.802244601213356390e+00,-3.911087858951134866e+00,-3.984950009582166608e+00,-4.014572094990745299e+00,-4.084288454422925874e+00,-4.111516299331532842e+00,-4.120921473314131056e+00,-4.154938505371829294e+00,-4.277695416474061041e+00,-4.480262233179785447e+00,-4.685390047950106940e+00,-4.818204499723308665e+00,-4.947146121107208749e+00,-5.037853124114962000e+00,-5.093582208391135069e+00,-5.172763859033786105e+00,-5.318414675822046966e+00,-5.419103670193209155e+00,-5.513333382733955013e+00,-5.620333318726959071e+00,-5.761871716432516166e+00,-5.866563200992858107e+00,-5.980211230378442266e+00,-6.112964349712873613e+00,-6.238043541903803835e+00,-6.376768341744520008e+00,-6.313213570983951861e+00,-6.214394778836061839e+00,-6.095461450852088348e+00,-5.967986078483333401e+00,-5.818863149249811073e+00,-5.662106410843713356e+00,-5.514736579358635815e+00,-5.343683805311514767e+00,-5.229847856811502105e+00,-5.128455072393694358e+00,-5.027101740680236297e+00,-4.923825495491183979e+00,-4.809933603956302761e+00,-4.705442592020433246e+00,-4.522271666978655347e+00,-4.337954677287659599e+00,-4.246741453721652348e+00,-4.197114312553190452e+00,-4.055263490429411810e+00,-3.941569158361700964e+00,-3.816564160736423350e+00,-3.637492506772705969e+00,-3.483736502083082165e+00,-3.236827608363861408e+00,-2.882165488362544270e+00,-2.655958954400319705e+00,-2.397949326355538702e+00,-2.109028693773112195e+00,-1.762284775302378481e+00,-1.328453609162705273e+00,-7.880103978366554962e-01,5.993521952656947205e-01,1.214989646213260999e+00,1.235920749031155674e+00,1.460184547140458866e+00,2.831352492896320516e+00,4.737175979662831438e+00,6.633994270848148744e+00,8.051737728059041643e+00,1.017230117578555060e+01,1.303200302414793477e+01,1.532199655535710825e+01,1.721369895261390326e+01,1.965983787576530517e+01,2.157248244574617502e+01,2.427016469282781230e+01,2.716568846875504306e+01,3.187710851926447830e+01,3.730089983694237077e+01,4.241734135842033027e+01,4.660845241089827340e+01,5.000129165883692650e+01,5.319670997428465142e+01,5.561127717993655750e+01,5.875732986890280074e+01,6.078609755235181922e+01,6.194815709434561768e+01,6.209339840352184581e+01,6.242560216839449083e+01,6.358832454049358063e+01,6.764077812978784721e+01,6.986320566453895253e+01,7.183981112827122217e+01,7.422016152956980761e+01,7.445788212842055032e+01,7.464941529164977396e+01,7.602495842486987954e+01,7.806129043651262123e+01,8.121757910250656209e+01,8.392413977705035677e+01,8.368091484736902430e+01,8.369546201356978088e+01,8.499755813525592885e+01,8.730713008534671360e+01,8.826306144717592872e+01,8.315950520197816331e+01,8.091527167181503444e+01,7.980424551964502200e+01,7.647489239136878325e+01,7.422175196846751533e+01,7.418697426538886930e+01,7.327619839540545854e+01
-3.287343822993062936e+00,-3.331531819595700217e+00,-3.318707771898927295e+00,-3.332669860966771314e+00,-3.210765321940455497e+00,-3.162030996820720308e+00,-3.287080930577322757e+00,-3.433841400339847638e+00,-3.560910116591710306e+00,-3.736387876405245834e+00,-3.917499820682945888e+00,-4.051669201907501794e+00,-4.080759132588420712e+00,-4.079873954025143412e+00,-4.058042327651247838e+00,-4.120947733958442605e+00,-4.185991192349790779e+00,-4.268815580004200250e+00,-4.492298492137813071e+00,-4.731545733636015605e+00,-4.843665959257648090e+00,-4.986381974287746210e+00,-5.079169795727815462e+00,-5.140664184338917586e+00,-5.258397898503242018e+00,-5.400906789766126259e+00,-5.496773173650002065e+00,-5.617857879199052995e+00,-5.730852776675149585e+00,-5.849615994647586525e+00,-5.934069130978172346e+00,-6.015154548184530547e+00,-6.154597415113976844e+00,-6.286121359466238623e+00,-6.430143648553575453e+00,-6.397906419538079703e+00,-6.296979461660643373e+00,-6.188487311349220477e+00,-6.085058610865844209e+00,-5.930255890986997791e+00,-5.771584584572538645e+00,-5.627571672631395572e+00,-5.453001894149879014e+00,-5.315946468033812877e+00,-5.184087203655745490e+00,-5.045995756146237632e+00,-4.953322090615352558e+00,-4.840535585774047966e+00,-4.694039574003363136e+00,-4.531414005022042168e+00,-4.400540445408604562e+00,-4.279214046404574923e+00,-4.153407163030237825e+00,-4.059210758610088732e+00,-3.992366188537866289e+00,-3.834645005731803558e+00,-3.634388468339738054e+00,-3.420963547953220996e+00,-3.165261255425924070e+00,-2.841750870565534548e+00,-2.665398965442765444e+00,-2.435839524316203430e+00,-2.121788090038270624e+00,-1.695620209934622480e+00,-1.220235292088087231e+00,-1.002022090339292681e+00,-1.783432787283200371e-01,6.986830902510170471e-01,1.151604132204851361e+00,1.389899523102388956e+00,3.111470799707651391e+00,4.996621786244118013e+00,6.763691255366739874e+00,9.224337499071326718e+00,1.179310278431511350e+01,1.495377711431905254e+01,1.700373242402695695e+01,1.821181294010885665e+01,2.084201461282814449e+01,2.270207312242691344e+01,2.518187887926304214e+01,2.801386296903342910e+01,3.276971617934626835e+01,3.751200730831162389e+01,4.261787788247597319e+01,4.755053752172526771e+01,5.164599211601174744e+01,5.554918303831366444e+01,5.805251020395076722e+01,5.957005102323518742e+01,6.048677180600578396e+01,6.189799720592176868e+01,6.133081586057021184e+01,6.107851770730641050e+01,6.253780762063540521e+01,6.737867554268640902e+01,6.947180812354015700e+01,7.082579437788781718e+01,7.282631025956982285e+01,7.327500455697747839e+01,7.422971876307539674e+01,7.629662038838466742e+01,7.749134292648177791e+01,7.939205730372729874e+01,8.218143813956433519e+01,8.301076462437497128e+01,8.431433729783293529e+01,8.469107769831799715e+01,8.625504322620261632e+01,8.816959446357522268e+01,8.388773304102168993e+01,8.055567507226004409e+01,7.806876889156944799e+01,7.471861552131950646e+01,7.316966618189130145e+01,7.399071118199235286e+01,7.339350084844006972e+01
-3.352184378206662263e+00,-3.400514976112782417e+00,-3.343767734829593330e+00,-3.368863491773002927e+00,-3.315047862307347160e+00,-3.181148658089530290e+00,-3.221360817562176848e+00,-3.382040509718621468e+00,-3.541427040827398454e+00,-3.758078319656864341e+00,-3.934548492317553325e+00,-4.043891937628230515e+00,-4.111132712430399572e+00,-4.096037009693572095e+00,-4.048005141765155024e+00,-4.106599740920770181e+00,-4.177984371686207510e+00,-4.328642137018198888e+00,-4.552240282538947191e+00,-4.746129845253326707e+00,-4.858555801035134181e+00,-4.969248971950203320e+00,-5.076125521191913847e+00,-5.207990396331758198e+00,-5.317228137723698289e+00,-5.433695742371996040e+00,-5.557010417601289554e+00,-5.699679102663476549e+00,-5.797339562068043683e+00,-5.878402842101134951e+00,-5.948975692508197355e+00,-6.035529416925943025e+00,-6.174376747360573070e+00,-6.330042014411585427e+00,-6.505572236417703991e+00,-6.483147006580646909e+00,-6.394672391286915669e+00,-6.286979511869349224e+00,-6.175117901592183323e+00,-5.986354177818434152e+00,-5.821439456565167703e+00,-5.692983250669056972e+00,-5.514948054633000751e+00,-5.371981725298441646e+00,-5.248163473083352848e+00,-5.086576240074308863e+00,-4.949240083533610779e+00,-4.810357160638086604e+00,-4.683461835486085079e+00,-4.591932515096243783e+00,-4.454931073809461850e+00,-4.270885675869169340e+00,-4.116078177327315402e+00,-4.056140934028170442e+00,-3.995084125279368070e+00,-3.776383835141575496e+00,-3.581393714484924384e+00,-3.375865554454258177e+00,-3.128237071366157807e+00,-2.869991645761728272e+00,-2.690320690683879690e+00,-2.469660784810892906e+00,-2.147950521376521316e+00,-1.781353547772444035e+00,-1.391601865274785466e+00,-1.150718628165832147e+00,-5.131697711394700434e-01,6.779714006292990591e-01,1.627031965062294194e+00,2.577594105245348821e+00,4.292774715753530757e+00,6.175818926529495378e+00,8.079846573281587396e+00,1.063229488433146130e+01,1.351288716855314931e+01,1.710748958066417558e+01,1.982200504684688269e+01,2.079238439415458473e+01,2.222963378117793098e+01,2.437726727875519117e+01,2.692334102903193127e+01,2.959508016369559158e+01,3.320129103847210672e+01,3.671347602877819583e+01,4.158265291020312304e+01,4.733974626867860991e+01,5.139564329510047713e+01,5.505229768955987169e+01,5.741716597616545670e+01,5.834682034324332989e+01,5.910528414605097680e+01,6.007499154379564743e+01,6.080540092425171395e+01,6.177509197965021315e+01,6.313180335882788796e+01,6.837915332912153588e+01,7.197956365860446226e+01,7.247119177672315971e+01,7.362296236973760699e+01,7.411972708065621873e+01,7.365182445734988903e+01,7.456556427608313697e+01,7.604958829662385256e+01,7.845910161766234125e+01,8.155033581289077915e+01,8.279021668436497805e+01,8.347909030257564211e+01,8.356885609699513395e+01,8.518507071085990390e+01,8.629562591015982775e+01,8.361985523103490436e+01,8.081199220061222377e+01,7.803778663906352620e+01,7.585568627688992649e+01,7.493977404601334058e+01,7.599774069046992508e+01,7.452945274844398682e+01
