-3.091224995378442753e+00,-3.586509765760891533e+00,-3.947633040827036144e+00,-4.255709522918005305e+00,-4.525681734521614707e+00,-4.750343903032421267e+00,-4.794185581512677707e+00,-4.823906270948321584e+00,-4.850478382591733251e+00,-4.905758523307685692e+00,-4.928918419452297250e+00,-4.883623747326107711e+00,-4.848784356268017071e+00,-4.826711148297870402e+00,-4.754071574077788576e+00,-4.612175019551039590e+00,-4.632897875297092405e+00,-4.631677742980365053e+00,-4.561043040189389330e+00,-4.490476093653861689e+00,-4.376117170903974340e+00,-4.295886358019731510e+00,-4.257093236532302427e+00,-4.226171843693072638e+00,-4.137400805716278995e+00,-4.030786795237482956e+00,-3.935539432887460443e+00,-3.797239131686864777e+00,-3.648871597566091918e+00,-3.590769180248661208e+00,-3.540965957543953824e+00,-3.359299124084038191e+00,-3.155962937559922743e+00,-2.935990348198482813e+00,-2.735511226442408628e+00,-2.527171489381361269e+00,-2.394299166049831395e+00,-2.202413104670029043e+00,-2.003724783207423865e+00,-1.707184305418762538e+00,-1.166989142056658935e+00,4.934085342073263880e-01,2.848444241164528101e+00,5.122745556174266746e+00,7.244542175451433863e+00,8.834404184067174981e+00,2.629398076398226092e+00,-9.017165294728002323e-01,-1.896225992856185316e+00,-2.408668607425435759e+00,-2.832068553445710624e+00,-3.062324065244196092e+00,-3.224579656046792309e+00,-3.459468105087842194e+00,-3.683351982830620042e+00,-3.921834799784122971e+00,-4.118146977279552701e+00,-4.263903902979727434e+00,-4.447899250580566566e+00,-4.593880250327935677e+00,-4.669328842637914256e+00,-4.674529447425107342e+00,-4.752900845230762172e+00,-4.804650893517048438e+00,-4.777091276012237486e+00,-4.774602454357856907e+00,-4.712731199296962714e+00,-4.685882634518619305e+00,-4.640651444802164072e+00,-4.544451578964855187e+00,-4.513161033971840652e+00,-4.544777690510776402e+00,-4.488642799923255211e+00,-4.406684334910769607e+00,-4.277705218388887509e+00,-4.077963533398745177e+00,-3.802240020597837944e+00,-3.492421139618970383e+00,-3.239282621712929355e+00,-2.993810751996523134e+00,-2.592394570892058159e+00,-2.254277983086220960e+00,-1.810878720280490572e+00,-9.322539642153933048e-01,1.767431952893798730e+00,6.999030334704910317e+00,8.492136436943683364e+00,9.724090025385960345e+00,8.913440787365846774e+00,8.388870942559327304e+00,8.697862352875228353e+00,9.348628852662688615e+00,9.832153250352439144e+00,1.040924915993081967e+01,8.898592058389789727e+00,7.598685149054990262e+00,7.094243952628866090e+00,6.494365235141181358e+00,6.633070171324665587e+00,7.596615307218791635e+00,9.246633586941671368e+00,9.968552799357571104e+00,1.059427267333648892e+01,1.039278194041459535e+01,9.308481050606619789e+00,7.700660901889768262e+00,5.802834583602822782e+00,4.619114114699647722e+00,4.222539351572999422e+00,4.547248612598297157e+00,5.329573664689046808e+00,4.029977766976210241e+00,3.105134288737072978e+00,2.831111509967612072e+00,1.593937074673855703e+00,4.945205756143692954e-01,2.909724275103892643e-01
-2.786609786424176338e+00,-3.272315457872074340e+00,-3.667052558337119184e+00,-3.979410035670861046e+00,-4.262220022561312049e+00,-4.472520417595230668e+00,-4.520009978685905594e+00,-4.550804598563094494e+00,-4.620906461790836417e+00,-4.700733857602391375e+00,-4.763023433871270029e+00,-4.787717343303355300e+00,-4.750798210498959229e+00,-4.685319843795009653e+00,-4.616343170026880216e+00,-4.474156669534024466e+00,-4.438729041602075043e+00,-4.419098166313376375e+00,-4.352761716999159702e+00,-4.272537292146611598e+00,-4.169750818502262035e+00,-4.115455335876795573e+00,-4.063014508721948914e+00,-4.018585469321468651e+00,-3.960319688935959981e+00,-3.916813066158180590e+00,-3.829455723318140770e+00,-3.660501616207106235e+00,-3.522474187240861809e+00,-3.463848032835693758e+00,-3.414674680732800116e+00,-3.179323143982688560e+00,-2.910608851705503319e+00,-2.744244875988758547e+00,-2.581732382871047005e+00,-2.287106284352625529e+00,-2.216632955230690705e+00,-2.125022395324182245e+00,-1.999009220302339740e+00,-1.688700653812150509e+00,-1.198262093645626303e+00,1.032257823301713784e-01,2.101820328541183613e+00,4.578041819298721116e+00,7.419242938921772001e+00,9.404519799583287210e+00,2.830262236058314507e+00,-9.075660805508537488e-01,-1.906941420365194206e+00,-2.534747697221481300e+00,-3.018798165261295630e+00,-3.179529076123591924e+00,-3.357101013794424382e+00,-3.627737659867891207e+00,-3.845307457310140897e+00,-4.085734138337000942e+00,-4.327850884798274400e+00,-4.464948281089320403e+00,-4.629655442114219532e+00,-4.770544186191240321e+00,-4.898131465823101216e+00,-4.926394895308027877e+00,-4.940224997498019022e+00,-4.945288361428256785e+00,-4.899885875221415610e+00,-4.919745458000864602e+00,-4.892640389379220522e+00,-4.858187587822109244e+00,-4.846860181592105299e+00,-4.762286991433382077e+00,-4.701650507853058159e+00,-4.725272741218485173e+00,-4.667020822821306147e+00,-4.611682161422593573e+00,-4.495699181604699390e+00,-4.263627835455136683e+00,-3.952139314829107075e+00,-3.704088771217211029e+00,-3.452979430062044219e+00,-3.111027836220171316e+00,-2.767474329650759568e+00,-2.517650098504959910e+00,-2.110173900553514503e+00,-1.377565892441133144e+00,8.849477884907809289e-01,6.609597730023186735e+00,7.688950507452318561e+00,8.556255504294979275e+00,8.936346218885837800e+00,8.697469590123866112e+00,8.447267048986516258e+00,8.690085388053240933e+00,9.150127956235213134e+00,8.758178070214599487e+00,7.428010223261487077e+00,7.288973555792755299e+00,7.283737500288307132e+00,6.983622345314496549e+00,7.449471432027911177e+00,8.463720310496103849e+00,1.016025876287933372e+01,1.031200963508318225e+01,1.066000222311615353e+01,9.890519049914779259e+00,8.352910465139817831e+00,7.927176626527559833e+00,7.329962041657374527e+00,5.924278694077961482e+00,5.294190464434805676e+00,5.602882083022297621e+00,6.420998907839480019e+00,5.078531902982672541e+00,3.289332413240886321e+00,2.780256733447489914e+00,1.512705751030842150e+00,3.769465354780207611e-01,4.802871637649942516e-01
-2.477402856595699809e+00,-2.911903882597224325e+00,-3.370246902102715492e+00,-3.768257600758644354e+00,-4.055936697816052039e+00,-4.240893173673636163e+00,-4.268390762591365295e+00,-4.317334188796005279e+00,-4.356892374127885326e+00,-4.439892683204308632e+00,-4.572780949994882604e+00,-4.626007837159053615e+00,-4.574670086986316164e+00,-4.482699082544075786e+00,-4.401484296818974684e+00,-4.264163715264149168e+00,-4.219295648351775618e+00,-4.147330375021309301e+00,-4.105036514614642584e+00,-4.055501124753799758e+00,-3.920435758761046330e+00,-3.883705958519915402e+00,-3.852741914770988707e+00,-3.796396255539120190e+00,-3.761485660153558452e+00,-3.728756474660911202e+00,-3.640598403341232636e+00,-3.510207977698957205e+00,-3.348899596036925885e+00,-3.278017607463576066e+00,-3.235054145923995872e+00,-2.983326944433128070e+00,-2.736893479984220612e+00,-2.594584578425346955e+00,-2.379065640502333601e+00,-2.067908616203276484e+00,-2.096770362085748740e+00,-2.022785453575107972e+00,-1.847149666339901852e+00,-1.606297908925748530e+00,-1.224224744407098386e+00,3.153013671499794307e-02,1.335088019545515259e+00,3.235600055109883577e+00,5.858412062990530522e+00,8.388293338539572375e+00,2.533991121221459419e+00,-1.069216506483018803e+00,-1.980223584762394795e+00,-2.580132819087986640e+00,-3.066712313768209963e+00,-3.288815303702755433e+00,-3.531023277841892849e+00,-3.796764666420505474e+00,-3.999263216336996773e+00,-4.205111499540902464e+00,-4.462158384791541366e+00,-4.647213514979110727e+00,-4.809455916230642281e+00,-4.947315936875102516e+00,-5.074188461731272248e+00,-5.121943343610015908e+00,-5.096496521489961573e+00,-5.058815540774481256e+00,-5.048477435331013119e+00,-5.080813110196277016e+00,-5.090301695297950957e+00,-5.053615131112563219e+00,-5.013640864314487189e+00,-4.967693892630111741e+00,-4.888031243796317149e+00,-4.896143891131401915e+00,-4.871634481985763543e+00,-4.820537376452281642e+00,-4.681160826951531462e+00,-4.422521494831166855e+00,-4.097748649010582334e+00,-3.829704581245199524e+00,-3.547154907045324546e+00,-3.197996505535841916e+00,-2.961300480557804260e+00,-2.755998570263539449e+00,-2.341338480935465149e+00,-1.703843854525602053e+00,1.344150188052345707e-01,6.075209853305595153e+00,7.487054464773019724e+00,7.641641650505413885e+00,8.760172852219607620e+00,9.384500081014680362e+00,8.591530065273479622e+00,9.096085425034502236e+00,9.247440738682753292e+00,8.479458665247658899e+00,7.368564132825886404e+00,7.059967625799925983e+00,7.667685362717613806e+00,7.930341924943784093e+00,8.279667416180872763e+00,9.400594566288360099e+00,1.079491770255148175e+01,1.056573320880759148e+01,1.058714739882184830e+01,1.021434110808451656e+01,9.400273274163396309e+00,9.015646158868607429e+00,8.174791261705959045e+00,7.115195522518002136e+00,6.781431382072319103e+00,6.839603767583888327e+00,7.112553783544697694e+00,5.984677414985183574e+00,4.361777429247891469e+00,3.350689046668528626e+00,2.246748429224090238e+00,9.105429492682554082e-01,6.197778806116791550e-01
-2.071331948943411660e+00,-2.642625599482677501e+00,-3.055665047185689431e+00,-3.459067266665821538e+00,-3.813745737141154279e+00,-4.023114861529134778e+00,-4.008892315753980640e+00,-4.059206948667804404e+00,-4.081445742374945063e+00,-4.184742266856757098e+00,-4.286443860876134160e+00,-4.304059145072522519e+00,-4.300714240044156256e+00,-4.244021940284398831e+00,-4.155360025785056699e+00,-4.029438012023464744e+00,-4.028913932277156995e+00,-3.955136981777774619e+00,-3.899924968639600920e+00,-3.843873654360862258e+00,-3.730386612719103656e+00,-3.757613826412134372e+00,-3.750420544130219191e+00,-3.682245347997909590e+00,-3.620175810182800991e+00,-3.545084845913076599e+00,-3.382689741125312288e+00,-3.215721015782212699e+00,-3.090426967412638337e+00,-3.074435639095583817e+00,-3.111958886384109668e+00,-2.944248026607918955e+00,-2.726067537373431993e+00,-2.607772627608160310e+00,-2.402004389628647374e+00,-2.164287011550939610e+00,-2.177754044067674144e+00,-2.007850923613058391e+00,-1.770376734058643375e+00,-1.599221136622833050e+00,-1.292653278127808614e+00,-4.771815754658949582e-01,8.268869951970212462e-01,2.727260049348147586e+00,4.442798258188199512e+00,6.632727341180499003e+00,1.697724264963265339e+00,-1.346646398699195224e+00,-2.191665324168700746e+00,-2.780834976515995205e+00,-3.220493258343930965e+00,-3.499645652599626899e+00,-3.754798145633531981e+00,-3.976282410430460157e+00,-4.207956124020901356e+00,-4.420677187680785103e+00,-4.630286047369644109e+00,-4.804580468080821731e+00,-4.948950284663443888e+00,-5.069061099605052689e+00,-5.150100019212852764e+00,-5.193746807827980483e+00,-5.221539883296128615e+00,-5.234031277965615736e+00,-5.229129775887298770e+00,-5.245432227288101323e+00,-5.260898594696072017e+00,-5.193478300479366538e+00,-5.117583127579818481e+00,-5.098772267287804638e+00,-5.041462429424872660e+00,-5.064578592863950846e+00,-5.026659094341630052e+00,-4.933489633023594223e+00,-4.790573712656723160e+00,-4.525024619628847056e+00,-4.218619622785690915e+00,-3.967639192316303465e+00,-3.705942565537895472e+00,-3.410517823374159985e+00,-3.141822920199080826e+00,-2.805854690053411371e+00,-2.344482802842352775e+00,-1.691022509947618158e+00,-3.383430136880456462e-01,5.083283019466854569e+00,7.785539813136846732e+00,8.245487296982982883e+00,8.701008149648401968e+00,8.751138814697679180e+00,7.441751327192576149e+00,8.264400725649984736e+00,8.959963758219801733e+00,8.673790403550754036e+00,8.518876134522024302e+00,8.780526815117989159e+00,9.318591696800874402e+00,9.441329778368348968e+00,9.506928626051559306e+00,1.057898670328954793e+01,1.142203611978734301e+01,1.081282243466656823e+01,1.032100310910473517e+01,1.016174091570619353e+01,1.022769980810231161e+01,1.002247215850830919e+01,9.116323514336510669e+00,8.608001475469173158e+00,8.437849356840990467e+00,8.064433651330329411e+00,7.599337845489819721e+00,6.814497886845572339e+00,5.752762208316551273e+00,4.532631759554107909e+00,3.945620793710735708e+00,2.650579585974144781e+00,2.077853702657876944e+00
-1.437964905662041382e+00,-2.346319682739940404e+00,-2.820838732978222740e+00,-3.222852670097058780e+00,-3.595506554431100454e+00,-3.854026158342934494e+00,-3.753414841634081789e+00,-3.736493807121414878e+00,-3.791584872540262552e+00,-3.853645703146959089e+00,-3.838520768314720222e+00,-3.874940797465687314e+00,-3.934465704659951601e+00,-3.952779590048293379e+00,-3.891163654193047883e+00,-3.769247907441487300e+00,-3.781680188375700968e+00,-3.715816107508619126e+00,-3.660862563026724636e+00,-3.672875389437685545e+00,-3.630638792570170637e+00,-3.597230598854121553e+00,-3.553745885564424167e+00,-3.497399103139461118e+00,-3.440263339341242510e+00,-3.381755737478358448e+00,-3.122301672115436411e+00,-2.866889553802224100e+00,-2.843260962880301612e+00,-2.930209193397574907e+00,-2.959006325255548298e+00,-2.860882723000405914e+00,-2.759605843521259150e+00,-2.625784167964662075e+00,-2.483061945969429196e+00,-2.296942215262061993e+00,-2.217753699651955568e+00,-2.103426796732453585e+00,-1.964461402144138003e+00,-1.730953899364620074e+00,-1.277545654492393767e+00,-8.813603820658729715e-01,-1.985864124380040674e-01,1.375704042561156193e+00,2.640797428791629820e+00,3.987966698353782924e+00,-1.766693283558821159e-01,-1.820247976291472503e+00,-2.404750348555841466e+00,-2.918297495213707293e+00,-3.396233726695539801e+00,-3.695123838137172267e+00,-3.926936981716456554e+00,-4.149003156055780295e+00,-4.422559319595506189e+00,-4.659022003776313703e+00,-4.813414679553067899e+00,-4.918818370600779311e+00,-5.012463974992305893e+00,-5.113217521562908097e+00,-5.173455919434133854e+00,-5.221104645666478916e+00,-5.312751285843098081e+00,-5.385310292001064703e+00,-5.366220901086582451e+00,-5.377472571836296567e+00,-5.377606221235767592e+00,-5.312997374266776873e+00,-5.254072202520139179e+00,-5.244841989740394617e+00,-5.196488317447963468e+00,-5.217306103698642339e+00,-5.181619294026948097e+00,-5.058215337294785563e+00,-4.836777788298339154e+00,-4.526440239690525225e+00,-4.270563352987424288e+00,-4.026847120311756179e+00,-3.812808566332400506e+00,-3.595430515639574054e+00,-3.292138921532788309e+00,-2.901091044021789411e+00,-2.468708696770243183e+00,-1.796671021358260179e+00,-1.379967652141173562e-01,4.941524324733349793e+00,7.763381558444511832e+00,9.234750601162785344e+00,9.385754508848664912e+00,8.650668193938411576e+00,7.137836333547797452e+00,7.938885967246705810e+00,8.639704927212997987e+00,8.706856744563705064e+00,1.018975631521870184e+01,1.184495633697256167e+01,1.182487273065768996e+01,1.135434201085730699e+01,1.071991840517503825e+01,1.089412213285130981e+01,1.102153531939381814e+01,1.000721679493597982e+01,9.608324208882008222e+00,9.490610213464064415e+00,1.024177064373492918e+01,1.117917744339689357e+01,1.066155483627941791e+01,1.091250434234483890e+01,9.703612419864001026e+00,8.522343539996191097e+00,8.514104713192997664e+00,8.177338425699161917e+00,7.819284325954379611e+00,6.636919569234034810e+00,6.474228427772143135e+00,6.059125422116404813e+00,5.774212866352433693e+00
6.282843036845645601e-01,-1.579515642605204606e+00,-2.306362471799168201e+00,-2.789177728520985333e+00,-3.196594157259161406e+00,-3.510027468292665542e+00,-3.396749977466259285e+00,-3.385562630108216009e+00,-3.411229743276428916e+00,-3.347679978993562955e+00,-3.322394889375663851e+00,-3.470838364684321498e+00,-3.518678853287939834e+00,-3.551909597454857348e+00,-3.543575349281060660e+00,-3.459517667027244059e+00,-3.462615328543053206e+00,-3.381935590737313202e+00,-3.289594328133946366e+00,-3.348071682316120068e+00,-3.416107239979399690e+00,-3.334725345958310605e+00,-3.263245705964923360e+00,-3.244984416526384141e+00,-3.143794024640539142e+00,-3.064147818220106068e+00,-2.896626440013585491e+00,-2.738765321930374252e+00,-2.656710332677685749e+00,-2.648461696995163095e+00,-2.669619207332201594e+00,-2.673977144753003188e+00,-2.695271485802663403e+00,-2.562460665437572782e+00,-2.483007096800481150e+00,-2.365278781004405140e+00,-2.191244724975387470e+00,-2.126626255460379866e+00,-2.030672746874240708e+00,-1.681184069339731524e+00,-1.169769837924861333e+00,-1.009507781734717113e+00,-8.292101552311563761e-01,4.112120806802359030e-01,1.573670490050857573e+00,2.500219869395809091e+00,-8.795884951329623336e-01,-1.883203452442281378e+00,-2.434585330218324462e+00,-2.947082103974524081e+00,-3.366708170417289647e+00,-3.677524495343905908e+00,-3.976186416424963177e+00,-4.274440158136211032e+00,-4.551208809632734997e+00,-4.775487533536101559e+00,-4.957666939842906295e+00,-5.079139135253129211e+00,-5.145974609059845939e+00,-5.255118637950194405e+00,-5.314133801846907978e+00,-5.359212379168162066e+00,-5.429581724282483535e+00,-5.485880707677532442e+00,-5.531495407694595912e+00,-5.621829180183732788e+00,-5.615778882406238459e+00,-5.562581437041239418e+00,-5.485782137373404588e+00,-5.449470135746600441e+00,-5.376800284205724978e+00,-5.352520000413488077e+00,-5.295309204416370541e+00,-5.130511914161367315e+00,-4.897823006039177862e+00,-4.630410660455172689e+00,-4.419275428686096241e+00,-4.164296365727694571e+00,-3.927539758839620365e+00,-3.691654149736026014e+00,-3.414727602006080165e+00,-3.044568828448981801e+00,-2.576014454294038636e+00,-1.779533838343127172e+00,4.635594098132387875e-01,5.680706512359521732e+00,6.818738862775513887e+00,7.743581688416346864e+00,8.192006931063314568e+00,7.706525401639362727e+00,6.267546872809404590e+00,7.726584314738740744e+00,8.798191623226264468e+00,9.293787261931598209e+00,1.022771106621946480e+01,1.068765598952523277e+01,1.088455223624092838e+01,1.095032933756372628e+01,1.078868677920385544e+01,1.154945748912519043e+01,1.205717466677828220e+01,1.164784804041050137e+01,1.172761500960089442e+01,1.157472446090679874e+01,1.185039838425204728e+01,1.228595074260238462e+01,1.108483694689744148e+01,1.114236670181914413e+01,1.060102499518785280e+01,1.037779398372068229e+01,1.010431235429498997e+01,9.685324810842894649e+00,1.025222225902172823e+01,9.041450098872683583e+00,8.821121811997763018e+00,8.722209645443090409e+00,8.448430245615604406e+00
4.542501533522349533e+00,3.130971623504468226e-01,-1.534114777837580323e+00,-2.212656478654781544e+00,-2.758832612228838688e+00,-3.097582397584657699e+00,-3.009142980736361661e+00,-3.002053227615351094e+00,-2.941999430959738149e+00,-2.870065521173832845e+00,-2.849165206205244605e+00,-2.990192883815277813e+00,-3.051536464061746390e+00,-3.127827691259837728e+00,-3.150352524003352528e+00,-3.118210514078074258e+00,-3.123204258294101532e+00,-3.028255608056953818e+00,-2.958359384746525045e+00,-3.033816386803656950e+00,-3.111415853850320712e+00,-3.083997564126576663e+00,-3.027965358255812145e+00,-2.955815442110277580e+00,-2.859486392778788133e+00,-2.791365016145423095e+00,-2.703757504636446374e+00,-2.600459631094441004e+00,-2.416029555006709906e+00,-2.333739900931508071e+00,-2.449178896740052291e+00,-2.540893378806845071e+00,-2.571542925534703095e+00,-2.518244473647273107e+00,-2.427583570968230298e+00,-2.312381814442498573e+00,-2.205947652766893086e+00,-2.084878947682001993e+00,-1.923011869642236027e+00,-1.585478723960587200e+00,-1.137628451445494182e+00,-1.081783823169766956e+00,-8.368179124346755149e-01,1.663776858951966087e-01,7.978411972573649091e-01,1.572220186520140395e+00,-1.210827932431493004e+00,-2.094945256182404236e+00,-2.692833432146545913e+00,-3.120428865118724637e+00,-3.425907180278113806e+00,-3.786844970500720109e+00,-4.123002132691055088e+00,-4.459151788813446871e+00,-4.733779534585398352e+00,-4.919698401101325835e+00,-5.070269518210139381e+00,-5.201631454857913894e+00,-5.295483068482050193e+00,-5.412877839703632787e+00,-5.450827164082560294e+00,-5.480347857812263968e+00,-5.548918911352965111e+00,-5.623158269094356676e+00,-5.731891504510699065e+00,-5.841110157887447585e+00,-5.801611743298880519e+00,-5.745276530185260633e+00,-5.692214299483558726e+00,-5.652143898717712389e+00,-5.557980674086956618e+00,-5.497820042608199564e+00,-5.404952098387338921e+00,-5.240868749549375316e+00,-5.023428455947953175e+00,-4.739790307103602274e+00,-4.532675313067444200e+00,-4.335199480072634337e+00,-4.121160532454320347e+00,-3.865106610928669362e+00,-3.579648787314402725e+00,-3.128783339113878625e+00,-2.603140805634732047e+00,-1.864791495981021452e+00,-2.291708921167859292e-01,5.056009303735722327e+00,5.884845508992373908e+00,6.493635788464674263e+00,6.708425066093129274e+00,6.107045149029787012e+00,5.848838859532693668e+00,7.635608387667240926e+00,8.686780477727827687e+00,1.010455620933912435e+01,1.057515268860188229e+01,1.060551906806207967e+01,1.068672111479955866e+01,1.075831211101649210e+01,1.147088385011454470e+01,1.252225233713236108e+01,1.271858488778123153e+01,1.258222191073372898e+01,1.308259815428801254e+01,1.293637295666771081e+01,1.315522754664603156e+01,1.334451931254379886e+01,1.238776036612782683e+01,1.236454788760793733e+01,1.192070355896347422e+01,1.137861538643523218e+01,1.061028504283500595e+01,1.084652482685035046e+01,1.183206229772962814e+01,1.096620045001797195e+01,1.109267071082305378e+01,1.120869452678171996e+01,1.066692864158154208e+01
8.272469244443907854e+00,2.919731953116016854e+00,-3.335261885661818249e-01,-1.590915887509257720e+00,-2.254823012020390038e+00,-2.551698400766310826e+00,-2.458749410322842444e+00,-2.422424598165391352e+00,-2.331541589259090053e+00,-2.342171927345266358e+00,-2.362752824629062331e+00,-2.482925094306275060e+00,-2.544812268717564052e+00,-2.662379175898677008e+00,-2.685798989784510926e+00,-2.680018551532048043e+00,-2.676863543854617777e+00,-2.547915765169326718e+00,-2.500399851204411661e+00,-2.597903046464425714e+00,-2.662316792758514072e+00,-2.682013970842953121e+00,-2.697527078623388697e+00,-2.613198955697928039e+00,-2.521457386339216900e+00,-2.466803474929758710e+00,-2.387253290097935299e+00,-2.251863361932634255e+00,-2.143575697077422682e+00,-2.188298166493955588e+00,-2.229221500126103095e+00,-2.226134630944414106e+00,-2.226658377479212358e+00,-2.217434262444086368e+00,-2.199943926981285269e+00,-2.176481968843473780e+00,-2.136324714202183284e+00,-1.949245067459720149e+00,-1.799546587200322900e+00,-1.582577463656027694e+00,-1.169502326292463090e+00,-1.120312139152697561e+00,-8.917908698871344075e-01,-4.958597364947419095e-01,9.480672648817205228e-02,8.296982896658227080e-01,-1.517226633043753603e+00,-2.363989251871757347e+00,-2.947163461941248563e+00,-3.263755403427000434e+00,-3.527966195811670147e+00,-3.953653811163675424e+00,-4.267635465890374569e+00,-4.590317081180126380e+00,-4.900549010896144253e+00,-5.084377352109433090e+00,-5.217223120766242950e+00,-5.369562450558265532e+00,-5.449900867704647212e+00,-5.537390180426141839e+00,-5.591996161945019139e+00,-5.621301027433616149e+00,-5.677442222660372906e+00,-5.758349144019947907e+00,-5.881981659335924206e+00,-5.965777128886452729e+00,-5.930715703060880806e+00,-5.907765683963176251e+00,-5.851881802315792136e+00,-5.782782357007345553e+00,-5.696446498768973576e+00,-5.635687224826184227e+00,-5.524418715414296521e+00,-5.377531243360122559e+00,-5.187503371681235542e+00,-4.903297482590793344e+00,-4.679087403378208165e+00,-4.512412500773614887e+00,-4.320735445712891476e+00,-4.048117623401501497e+00,-3.784753672981687966e+00,-3.332802454868787123e+00,-2.746705056837808190e+00,-2.060306491080013735e+00,-9.393070797885746392e-01,4.418474120547467798e+00,4.724182954724543748e+00,4.803709093678227404e+00,5.353764884095502552e+00,5.200555059511452249e+00,5.695851088097872328e+00,7.025264539926920904e+00,7.624647307334502244e+00,9.492314271607813936e+00,1.029975263168668853e+01,1.072088535751363914e+01,1.054552232717960614e+01,1.048178559007889099e+01,1.124797643470546760e+01,1.174442357217053967e+01,1.261339784079787663e+01,1.368120871562890706e+01,1.460817728193049803e+01,1.445835111945183904e+01,1.451259798160008430e+01,1.434129553448074645e+01,1.357290194064995603e+01,1.339826397783830814e+01,1.333155099360429396e+01,1.272855170372054801e+01,1.176049803250219483e+01,1.275142982970805861e+01,1.375515735763682734e+01,1.283046049477356831e+01,1.265422678021845648e+01,1.232729746409695970e+01,1.157996679712240784e+01
1.184878758652761022e+01,6.067245680536601959e+00,2.775644955092352095e+00,1.028705651735792037e-01,-1.400511117888821877e+00,-1.826605878492310042e+00,-1.799776112492265989e+00,-1.779322745371234360e+00,-1.663505664121866623e+00,-1.624903951003254798e+00,-1.802469482622115482e+00,-2.045715728229978492e+00,-2.089589312436823221e+00,-2.114284568944269083e+00,-2.135318176419036984e+00,-2.134992764135611676e+00,-2.014689043768272292e+00,-1.869542375083896646e+00,-1.804903900956784435e+00,-1.957320807659850503e+00,-2.137241101951463662e+00,-2.132016415174555757e+00,-2.205585002816689677e+00,-2.200993615323264763e+00,-2.077812579479596522e+00,-1.975726800547868089e+00,-1.898165651684950772e+00,-1.840855696570315780e+00,-1.923491050088573573e+00,-2.013635751722592016e+00,-1.964612163946227286e+00,-1.924532468898888737e+00,-1.889492204937694098e+00,-1.896552099259758206e+00,-1.906051717285756064e+00,-1.900987178868027039e+00,-1.925694603046793185e+00,-1.829505312992242949e+00,-1.660942494305876593e+00,-1.397335174826099369e+00,-1.212171296521405095e+00,-1.279218156616620305e+00,-1.067369339276107443e+00,-9.170331010496434176e-01,-8.400583440263525992e-01,-3.580368483882399866e-02,-1.863603666296737460e+00,-2.643284008513221650e+00,-3.173643277789963690e+00,-3.472210172095612002e+00,-3.751761283529337465e+00,-4.174155889398288188e+00,-4.497194626637525339e+00,-4.788141286548007969e+00,-5.023166365689701429e+00,-5.195314603313086366e+00,-5.378465274800297458e+00,-5.538078866692050184e+00,-5.624884877694181995e+00,-5.698968241979578409e+00,-5.776413814918994305e+00,-5.798873094280343032e+00,-5.824891708365369070e+00,-5.886798455807383590e+00,-5.989912754337964884e+00,-6.101029482499129131e+00,-6.083217360734309409e+00,-6.052641526605915701e+00,-5.990325200295494312e+00,-5.903068591779666363e+00,-5.814175679832040089e+00,-5.780224685362328252e+00,-5.658040847564346443e+00,-5.500592262432094870e+00,-5.370212887312797001e+00,-5.156801524160845140e+00,-4.954161053160915706e+00,-4.770201888636964149e+00,-4.515138860013954591e+00,-4.181101617570789131e+00,-3.910065563748198691e+00,-3.499845849055017055e+00,-2.905421084974119328e+00,-2.230750167102133030e+00,-1.305105207960419067e+00,2.867143703113010478e+00,2.992037250136894588e+00,2.777023492466490939e+00,3.432657750909960281e+00,4.218569016106886949e+00,5.775117267638117724e+00,7.626595098495108083e+00,8.608453503573223031e+00,9.766319484624499836e+00,1.049988663083705198e+01,1.105225720658372879e+01,1.037988358645645626e+01,9.839406979144872167e+00,1.022215456661167110e+01,1.122268297606838239e+01,1.377254351523206566e+01,1.577062463649513013e+01,1.605265770801969438e+01,1.605060815794388773e+01,1.565945732683067604e+01,1.443113977810457271e+01,1.426398854758759249e+01,1.421203305144851292e+01,1.431522917303164633e+01,1.490520206480702292e+01,1.394788341036571566e+01,1.377571127605522960e+01,1.411049067929879364e+01,1.355915351695361615e+01,1.334179532590245465e+01,1.230377906515278319e+01,1.107288925417752523e+01
1.670036883353405699e+01,1.120286345037454545e+01,7.611614540025733788e+00,3.816098203957754453e+00,1.353978762743555331e+00,0.000000000000000000e+00,-6.179784303446409499e-01,-7.235793382092126080e-01,-8.446768219845547376e-01,-9.824729454096329251e-01,-1.131440781261260131e+00,-1.241364071879215158e+00,-1.410429193218232014e+00,-1.407609855341312333e+00,-1.411969080304237067e+00,-1.407362711403497224e+00,-1.103875708190031446e+00,-9.920251290508717013e-01,-9.164071100324230335e-01,-1.257135027932614557e+00,-1.647337526232535154e+00,-1.616453304153487647e+00,-1.656999006111891548e+00,-1.652567712952694778e+00,-1.634592987536996889e+00,-1.625082480552499709e+00,-1.541870301077809424e+00,-1.590013945401235418e+00,-1.671505274638029670e+00,-1.574070355784601194e+00,-1.520510518270571598e+00,-1.524541931801381978e+00,-1.424785848622108109e+00,-1.449093955448281124e+00,-1.443248654151677801e+00,-1.407362711403495226e+00,-1.417695574106033085e+00,-1.310981780078053660e+00,-1.293744766129460544e+00,-1.168698666971504929e+00,-1.032002425076723240e+00,-9.910663998174074063e-01,-7.225042659803549983e-01,-7.409496199209498757e-01,-8.293635763458081511e-01,0.000000000000000000e+00,-2.056990873177437784e+00,-2.902341255898345462e+00,-3.468317339499865870e+00,-3.816308037198571590e+00,-4.080657722382006192e+00,-4.441730291161684718e+00,-4.743671733842891314e+00,-4.979921819778176051e+00,-5.174329311235423390e+00,-5.363113258937652894e+00,-5.562408172625804781e+00,-5.699578371905331231e+00,-5.827391078765412402e+00,-5.922796766012154102e+00,-5.997057749052864928e+00,-5.968997719431012428e+00,-5.969097799194153176e+00,-6.015447644601625399e+00,-6.076686029849445170e+00,-6.192789767484209840e+00,-6.201503574568232757e+00,-6.173585667948170652e+00,-6.142269950752281105e+00,-6.075686534398712979e+00,-5.964213060895162677e+00,-5.938931095735966892e+00,-5.848173040881436080e+00,-5.724706556681697478e+00,-5.582720950755341249e+00,-5.363113258937652894e+00,-5.174917509385007719e+00,-4.969918790074228987e+00,-4.735365022333377638e+00,-4.434254797818532268e+00,-4.094437883782522825e+00,-3.680855036683648773e+00,-3.164507749378933088e+00,-2.626845049699171319e+00,-1.949837167063354970e+00,0.000000000000000000e+00,4.612901078911102459e-01,7.228949662129038334e-01,1.616981008105283779e+00,3.456734528833646181e+00,6.053170035297266161e+00,8.036715400553880784e+00,9.950863345968222973e+00,1.093363209768990352e+01,1.116780866511919790e+01,1.142068897287315110e+01,1.105649849479198998e+01,1.083430976045395511e+01,1.112242952264332452e+01,1.295064012424602673e+01,1.557137876269635868e+01,1.668008248301543262e+01,1.700413930148011232e+01,1.787380817852394088e+01,1.786497555670273130e+01,1.636310529461090724e+01,1.623629678682215527e+01,1.573636891174544949e+01,1.473648586545562011e+01,1.526937321826673255e+01,1.555703898072753510e+01,1.512043148618428567e+01,1.447511972049961848e+01,1.400912542003208294e+01,1.345130752487618331e+01,1.142068897287315998e+01,1.054351264360765228e+01
1.537216779040342374e+01,1.065251170309352702e+01,6.297243728144765740e+00,2.542225787367252909e+00,1.173806614074946186e-01,-1.200015021194331011e+00,-1.256020023856963430e+00,-1.358177976027689748e+00,-1.668937851012687323e+00,-1.937898379662831294e+00,-2.017911050332891421e+00,-1.968744405362751637e+00,-1.972910213574292193e+00,-1.934931376089445987e+00,-1.972259440590855784e+00,-1.919652907971447275e+00,-1.753424332863141144e+00,-1.727233581385563710e+00,-1.818400343608424841e+00,-2.003379821987178122e+00,-2.132928263864917628e+00,-2.047487549291012066e+00,-2.063746307027194415e+00,-2.052182301801741993e+00,-2.115629708487837046e+00,-2.170436449949168622e+00,-1.985713768581540695e+00,-1.908819046014015752e+00,-1.843431116897017219e+00,-1.640694536307460760e+00,-1.406420896863149528e+00,-1.422135777813028579e+00,-1.311431301867347354e+00,-1.380134686360943830e+00,-1.603366853830157979e+00,-1.657598249591937245e+00,-1.525872452964807557e+00,-1.336726189894738237e+00,-1.449646304852916012e+00,-1.531602491685425838e+00,-1.316270945509940615e+00,-1.124931853838028184e+00,-9.860991271283343629e-01,-7.890008739059473086e-01,-6.817453093185903423e-01,1.020586758174809733e-01,-1.902713857121877572e+00,-2.747009040875179942e+00,-3.341005156966384337e+00,-3.700010715067662215e+00,-3.939657649995362831e+00,-4.191838111210521411e+00,-4.435951978703859488e+00,-4.663436011223591748e+00,-4.842150411109368058e+00,-5.003988004319649185e+00,-5.208516474398047436e+00,-5.348747395348262046e+00,-5.453288705993883489e+00,-5.555657615342571631e+00,-5.650575843904679374e+00,-5.610549338114278584e+00,-5.614481879204671344e+00,-5.660989376222535618e+00,-5.705132592522167201e+00,-5.771855431817773052e+00,-5.787166214396746611e+00,-5.770065711017683618e+00,-5.740321281166136380e+00,-5.715575475209789147e+00,-5.606077130157919086e+00,-5.524962796179782032e+00,-5.442972741113841550e+00,-5.324460095092291567e+00,-5.158298092029199644e+00,-4.899180620729418401e+00,-4.678264964260303138e+00,-4.437701566730606118e+00,-4.205904592714029278e+00,-3.954626271275878846e+00,-3.600352116582659079e+00,-3.137556022660223043e+00,-2.548611965826617087e+00,-1.826308024749631942e+00,7.701518064430702692e-02,5.684712730737672359e+00,6.424216214537914915e+00,6.699595189548614549e+00,8.293443461866333521e+00,1.104561501961550540e+01,1.266068866782244839e+01,1.380034816209288806e+01,1.622054259989653247e+01,1.802658794898649219e+01,1.764708563236829875e+01,1.688522774637582557e+01,1.733754726141711089e+01,1.847313318343096356e+01,1.914749373448085024e+01,2.096996792072447491e+01,2.308282248212484333e+01,2.425512334671372727e+01,2.521790142750948860e+01,2.639784029146925803e+01,2.600920536472717615e+01,2.408221369919914778e+01,2.265320555497721955e+01,2.094157527651099571e+01,1.843637785469457313e+01,1.749549367547953693e+01,1.758431258206995906e+01,1.722938028446128911e+01,1.613932893497374010e+01,1.574544447016765503e+01,1.450379000151107789e+01,1.203651904279290896e+01,1.159615843558263926e+01
1.223205942261438572e+01,7.925843453565079244e+00,3.817091979324285234e+00,9.692682530165988020e-01,-9.891754032008888142e-01,-1.638537962643275891e+00,-1.733016804533857869e+00,-1.954772924569075476e+00,-2.107559175790346462e+00,-2.249309400482765842e+00,-2.391677112546348738e+00,-2.377574862370947617e+00,-2.325466165920973438e+00,-2.299852906211204751e+00,-2.299634158957445607e+00,-2.147420180487593644e+00,-2.110086133657588015e+00,-2.191947022781706167e+00,-2.263851989496524553e+00,-2.308232100679529442e+00,-2.370054352303830214e+00,-2.322296263722058995e+00,-2.314797398225956648e+00,-2.289546633040159040e+00,-2.352970023873627525e+00,-2.396615185922692515e+00,-2.229630434298144337e+00,-2.172777581271191139e+00,-2.018847732892690594e+00,-1.757990940564187810e+00,-1.445318410975506840e+00,-1.449993583167944244e+00,-1.382114692374507126e+00,-1.526107564312545684e+00,-1.722319959297367031e+00,-1.646458136740992728e+00,-1.591271068107748432e+00,-1.558727698355671931e+00,-1.483551815811438468e+00,-1.447283573647860200e+00,-1.266479433721394932e+00,-1.125751205873279037e+00,-1.016826742225402258e+00,-4.469737195970726606e-01,8.413814206062894541e-02,5.120842825459710479e-01,-1.747934848472303848e+00,-2.650182443336633664e+00,-3.209404298144135748e+00,-3.531395975874741300e+00,-3.795907753619346625e+00,-4.007498044032600681e+00,-4.156857819545903610e+00,-4.347729470722621059e+00,-4.482989026788854581e+00,-4.589746452913328056e+00,-4.800134934621365979e+00,-4.942957012574088260e+00,-5.052640825096124999e+00,-5.193575130881502133e+00,-5.320652025148643993e+00,-5.286436971857548350e+00,-5.280203143253252129e+00,-5.312333728443764613e+00,-5.348061826634153526e+00,-5.369049431338732248e+00,-5.379413407117263901e+00,-5.362252248683573974e+00,-5.302139512099635965e+00,-5.293129515287921194e+00,-5.239982442207371527e+00,-5.160359164186948178e+00,-5.054237731992361482e+00,-4.905791360883764440e+00,-4.750790131376815495e+00,-4.488101781437707771e+00,-4.235047138138031464e+00,-3.958577569051457523e+00,-3.613337914025854136e+00,-3.291312093808286932e+00,-2.896186914859197881e+00,-2.315577008047908780e+00,-1.502587734173786549e+00,8.638642766952786545e-01,6.056406497165482961e+00,1.283139475374972349e+01,1.374320633795939628e+01,1.420374499834643167e+01,1.515124816747504077e+01,1.734713009594417699e+01,1.960412137777988306e+01,2.179636425260552812e+01,2.323940512519748935e+01,2.441555590056561087e+01,2.495696510622437359e+01,2.465070970849139442e+01,2.405005158625024109e+01,2.472974874695693970e+01,2.546525582876275706e+01,2.681704725826339342e+01,2.884543847747657708e+01,3.059177803744616853e+01,3.148957814939715760e+01,3.221499768014401610e+01,3.224620550275810871e+01,3.073575739848984867e+01,2.799425963040691911e+01,2.509206295521171981e+01,2.217704645554609755e+01,2.082198919022455996e+01,2.013362343155718293e+01,1.881150832035910980e+01,1.718488573327645597e+01,1.678639370876357972e+01,1.545524004291140940e+01,1.312792342674164381e+01,1.247084530405346570e+01
9.309039366123627701e+00,5.131141316993815593e+00,1.694241952943116081e+00,-6.765406649724627908e-01,-1.560108102418766185e+00,-2.061687953297187015e+00,-2.118943379771032642e+00,-2.239160482778324024e+00,-2.320264569360938722e+00,-2.404688491969313446e+00,-2.612464360192412904e+00,-2.610970544545493599e+00,-2.553687787768032624e+00,-2.540393588795068602e+00,-2.484284348484751881e+00,-2.331318369334018481e+00,-2.446590273043770303e+00,-2.555559369882956400e+00,-2.520438522929441483e+00,-2.501813123059322130e+00,-2.550556578162595844e+00,-2.489428197161465572e+00,-2.474104040382750114e+00,-2.507339873173390465e+00,-2.551050048997568265e+00,-2.606139853139774143e+00,-2.480844842148235418e+00,-2.389974908251308872e+00,-2.212354891245169153e+00,-1.946501568907320401e+00,-1.600088672504927034e+00,-1.582942869350692394e+00,-1.536119437964183820e+00,-1.562007135485620868e+00,-1.637925790715764274e+00,-1.585159664250210820e+00,-1.542700476977722390e+00,-1.525951025858540699e+00,-1.368764554493130614e+00,-1.181481270681643769e+00,-1.024067564290380483e+00,-5.880817504117672456e-01,2.505878376211737989e-03,4.650850513418803844e-01,1.274986707950922726e+00,1.778022394248276905e+00,-1.483713443886641503e+00,-2.427651711334911866e+00,-3.012684590127654882e+00,-3.341836084620012137e+00,-3.546622305887337845e+00,-3.715261628001194971e+00,-3.852429454044537849e+00,-3.977607553382905170e+00,-4.134671427635082885e+00,-4.267170600245183465e+00,-4.456540643067301133e+00,-4.597407784828154043e+00,-4.710701397784878175e+00,-4.832458112873965206e+00,-4.958291085285789990e+00,-4.970728370572835786e+00,-4.965874152497623761e+00,-4.966053232768028458e+00,-4.948963728128202177e+00,-4.934951753527015761e+00,-4.981499922619640586e+00,-4.994811239147092685e+00,-4.920263281049538584e+00,-4.885530797395384539e+00,-4.817132545320258252e+00,-4.730000479460726659e+00,-4.644575269894642311e+00,-4.502912614089727761e+00,-4.282506019006317111e+00,-3.982936428168957654e+00,-3.681337527478873994e+00,-3.359536030586073974e+00,-2.987334995734883147e+00,-2.583174701719929356e+00,-2.015144718308891747e+00,-1.082139071604316660e+00,1.813488143051299462e+00,7.290351604737949742e+00,1.293486819119752163e+01,1.957350594269760791e+01,2.074876387443550385e+01,2.116652876162663688e+01,2.251352741013450753e+01,2.492850542758207766e+01,2.697056116715628704e+01,2.894975799605533950e+01,2.972826099645571318e+01,3.004541630113301309e+01,3.176059925286369889e+01,3.247295144686002999e+01,3.073335134013768410e+01,3.057350189542334462e+01,3.187511167553533298e+01,3.334464100262928099e+01,3.414674168032573931e+01,3.562049760263104758e+01,3.728823980553738693e+01,3.802327294378398648e+01,3.776229804055191153e+01,3.583245581580955275e+01,3.232589680448092651e+01,2.917622868043270046e+01,2.637265983866748442e+01,2.424797838034938380e+01,2.240219661222231196e+01,2.158168715637237156e+01,2.093879015388487019e+01,2.001388348053647803e+01,1.807659903251447631e+01,1.582357419912258045e+01,1.380227247129628054e+01
7.898270382902054187e+00,3.867783574469923824e+00,8.769157289554260215e-01,-1.067388427250749450e+00,-1.775514418217843060e+00,-2.256951939956948205e+00,-2.333433195733045196e+00,-2.421951512453554667e+00,-2.522711135805923099e+00,-2.631272952149712907e+00,-2.791307775541259417e+00,-2.744026354666743384e+00,-2.695281384223064514e+00,-2.707222059204122289e+00,-2.692888295139626909e+00,-2.634531481030031319e+00,-2.767124501439246043e+00,-2.801914327174493291e+00,-2.774149188637407448e+00,-2.797862009493149671e+00,-2.737879764329672394e+00,-2.570438703664940761e+00,-2.456143233698105721e+00,-2.454152210884681384e+00,-2.526061617869307163e+00,-2.636715796229256892e+00,-2.613920569502375280e+00,-2.565188832505699956e+00,-2.423542299838372216e+00,-2.220486155017538099e+00,-1.909966710245821764e+00,-1.837064898714888095e+00,-1.810870638418715650e+00,-1.739307615077122726e+00,-1.708694508817061752e+00,-1.697356056027652826e+00,-1.560108472390398404e+00,-1.439967514684495686e+00,-1.321046616382589356e+00,-1.117674152971790846e+00,-9.552180004550218095e-01,1.421264624770768037e-01,1.147425784998380882e+00,2.057509631210272971e+00,3.275278600679945917e+00,3.415710441122593366e+00,-9.308292344926070161e-01,-1.972061122209458173e+00,-2.585975259551156036e+00,-2.899911572867404974e+00,-3.120370724301123833e+00,-3.352905166440598883e+00,-3.569959420110380588e+00,-3.705077602499630363e+00,-3.859060662258905872e+00,-3.995139275179953042e+00,-4.156903760715466412e+00,-4.292941032034134352e+00,-4.412163047580386355e+00,-4.513548895040971232e+00,-4.606629640720804275e+00,-4.654118850076280012e+00,-4.687602891977542541e+00,-4.688307854547039355e+00,-4.643076547901310747e+00,-4.621032070452838703e+00,-4.604899615052014283e+00,-4.549110913177957904e+00,-4.478408892839679467e+00,-4.435021741163023279e+00,-4.348611807291185016e+00,-4.264101654686816900e+00,-4.145913161433440131e+00,-3.949570461029708213e+00,-3.711618874159366310e+00,-3.435675736405911174e+00,-3.062783873605763318e+00,-2.665862486936807052e+00,-2.228251637837784571e+00,-1.629295636303738526e+00,-5.457847943368522303e-01,2.450709035761051258e+00,6.474638099523247980e+00,1.311700184032404337e+01,2.014044158557861053e+01,2.829624400155231356e+01,2.963612050571030920e+01,2.987424972261365852e+01,3.081063500793030485e+01,3.256637733204237861e+01,3.436431422127713375e+01,3.608078925914234247e+01,3.738878527721712430e+01,3.804158874167790572e+01,3.858253546431354408e+01,3.794361731657215131e+01,3.701784987294740858e+01,3.796388441827455296e+01,3.860202446444212399e+01,3.890558084235651393e+01,3.926411225311311171e+01,4.126162343720829284e+01,4.242584404231097750e+01,4.184881853760212778e+01,4.137197882035594176e+01,3.911617176789299322e+01,3.553033838546564027e+01,3.281721766191651568e+01,3.104563767791315243e+01,2.898466155520797116e+01,2.702417484993603836e+01,2.732786121963605552e+01,2.690336560962858314e+01,2.456861837154348294e+01,2.202438694715093348e+01,1.989113140094440979e+01,1.714196322470101208e+01
5.805464775040194425e+00,2.466223595410775182e+00,-3.347932133957800538e-01,-1.509927339057331119e+00,-1.983166101008792204e+00,-2.418769537659884339e+00,-2.495091127483767934e+00,-2.590790848429238125e+00,-2.675359221428482037e+00,-2.738933901381907621e+00,-2.812773102660957480e+00,-2.768162415642339447e+00,-2.815879569043311825e+00,-2.868226490403264606e+00,-2.878129974216087739e+00,-2.912386407996398141e+00,-2.996373507000242409e+00,-2.999401664337422613e+00,-3.022473469992418504e+00,-3.016387944099177876e+00,-2.857198250717756238e+00,-2.582469684389828490e+00,-2.405607632701670884e+00,-2.399398218940532512e+00,-2.433656028166484298e+00,-2.519739592607320944e+00,-2.693036846146950936e+00,-2.801425743619497144e+00,-2.647903800888210757e+00,-2.426528159034649690e+00,-2.196781513312646705e+00,-2.033719313405712992e+00,-2.022909487562238873e+00,-2.010039628720004412e+00,-1.876173939674415259e+00,-1.795322259822963895e+00,-1.632273207966515427e+00,-1.401335572551455355e+00,-1.096817455964498311e+00,-7.970690075575457278e-01,-4.921040187811592803e-01,1.205647341015209761e+00,3.016750302330978961e+00,4.678708953531071302e+00,6.099460680574977367e+00,6.488147453354350169e+00,1.069244609738650986e+00,-1.358096389520005998e+00,-1.981536103739280241e+00,-2.274783345308505567e+00,-2.537464239387900555e+00,-2.903242478415738237e+00,-3.211795393067935489e+00,-3.446277662628004279e+00,-3.638124877296392778e+00,-3.793150686547114958e+00,-3.906209568269939147e+00,-4.027217234331873286e+00,-4.158450605001127620e+00,-4.250885049321991183e+00,-4.286339679234682620e+00,-4.350090305598618201e+00,-4.411367549001222521e+00,-4.401332036291595529e+00,-4.376219870669669554e+00,-4.334762028586240490e+00,-4.215222951088461123e+00,-4.087927292476559060e+00,-3.987777084600838240e+00,-3.936841188561348570e+00,-3.846683736443747836e+00,-3.747010212841070942e+00,-3.615039662249786900e+00,-3.382029710165191716e+00,-3.153537984653935311e+00,-2.859430963404169468e+00,-2.332296228600462928e+00,-1.728069225412613763e+00,-9.526939989579684687e-01,1.382727931024845258e+00,4.688152761323475026e+00,8.510288575149127510e+00,1.342510616328404538e+01,2.002545608793777632e+01,2.758613491941671469e+01,3.613459644455313224e+01,3.674090411342109519e+01,3.791056784456893070e+01,3.896340857705169469e+01,4.011974000898754866e+01,4.247586580076290375e+01,4.437066523803964913e+01,4.538586806214587455e+01,4.596661546986640445e+01,4.563795342830128021e+01,4.447147789981581667e+01,4.395939162772341291e+01,4.405569560013233144e+01,4.355854263396880555e+01,4.379353104254310125e+01,4.395685924705161085e+01,4.563529398496289957e+01,4.616809204513866405e+01,4.439204985336484555e+01,4.370664691748847019e+01,4.177648991909562426e+01,3.786483889252718882e+01,3.570140598526111830e+01,3.550389076589578252e+01,3.471943555615249011e+01,3.429169498383647152e+01,3.469372711636243167e+01,3.291237849387443504e+01,2.953833483365084689e+01,2.766933638444830379e+01,2.542623968792934619e+01,2.207907049929537280e+01
1.686331494860944913e+00,-5.984757373728988306e-01,-1.485668700855689695e+00,-2.024735502050515557e+00,-2.427644508148921076e+00,-2.885551108480204352e+00,-2.892177402281141951e+00,-2.900936476827164157e+00,-2.935119961029988733e+00,-2.899964962411311298e+00,-2.919718699799062289e+00,-2.869286518618816562e+00,-2.869407298896256009e+00,-2.827581979364012899e+00,-2.762334627266783471e+00,-2.794754880880392811e+00,-2.897593909393112455e+00,-2.962817277685693806e+00,-2.971433203563863312e+00,-2.910806891308822753e+00,-2.834740058312007260e+00,-2.628552103507695747e+00,-2.459512567390313986e+00,-2.466147548771118636e+00,-2.516028178064821041e+00,-2.576858462723330856e+00,-2.680179298307355573e+00,-2.716673621225189184e+00,-2.674007959108189780e+00,-2.592275693228006439e+00,-2.452473419228876850e+00,-2.245324867785321921e+00,-2.072281563313797648e+00,-1.934124974679802378e+00,-1.762164440191526849e+00,-1.703132384950710287e+00,-1.505740472052516044e+00,-1.130889282371444926e+00,-4.732574620515924702e-01,1.875596976936099447e-01,5.965346079877430485e-01,2.533197393203795666e+00,4.009397502561102833e+00,5.392334049894436099e+00,6.736173132920019846e+00,7.454056192287355387e+00,2.407569371791588697e+00,-6.329480165807533920e-01,-1.537416866509961899e+00,-1.920880443002770832e+00,-2.065260643388066697e+00,-2.465035475798000419e+00,-2.786865808368600650e+00,-3.058528134577867430e+00,-3.359247784697556583e+00,-3.595221949069562495e+00,-3.656371158830457713e+00,-3.755104284724572139e+00,-3.836257247785375135e+00,-3.848642908863569190e+00,-3.862397120246970683e+00,-3.972842747965497079e+00,-4.056246655134945200e+00,-4.052100885598400204e+00,-4.029587773561791764e+00,-3.974610574910718341e+00,-3.866725430422436549e+00,-3.775098693762779956e+00,-3.598029453351470508e+00,-3.471701060822400819e+00,-3.288977528521115357e+00,-3.142321412231031008e+00,-3.019118804939011191e+00,-2.783271199359629744e+00,-2.553669906478333917e+00,-2.237762115088524073e+00,-1.514651315448655389e+00,5.667284102678486757e-02,2.886278240958219055e+00,7.010701304623585983e+00,1.182576456808127574e+01,1.579512410265482814e+01,2.137312600655299732e+01,2.750581736362393670e+01,3.481995262741359198e+01,4.276470491654760764e+01,4.253069485648344283e+01,4.497799010613096726e+01,4.703695029345416856e+01,4.876772998446247698e+01,5.171231048485602599e+01,5.303108942386166547e+01,5.401153224003182629e+01,5.452011702937178939e+01,5.427860582807351619e+01,5.328287173188677173e+01,5.212833106887833168e+01,5.038430229845705810e+01,4.806285070186516606e+01,4.773699967253839560e+01,4.639904622903573994e+01,4.661374056886677408e+01,4.721902751033859147e+01,4.532783820282796228e+01,4.386299606651723337e+01,4.207314232484426952e+01,3.923428719652190466e+01,3.876368751282366532e+01,3.894552594285816127e+01,3.802123144386091269e+01,3.782972144399209213e+01,3.777419044788479141e+01,3.663020852357405488e+01,3.414309830772656085e+01,3.169960095277210499e+01,2.802806564581524995e+01,2.513190639637084800e+01
-4.194880400613338889e-01,-1.300644146611256158e+00,-1.800537906251654441e+00,-2.214635235856549755e+00,-2.653425154417368592e+00,-3.172725754594754033e+00,-3.196873259336192152e+00,-3.192137863275145371e+00,-3.160271762196996459e+00,-3.036650895755106383e+00,-3.006673164989865921e+00,-2.936037646456274075e+00,-2.931577597951789738e+00,-2.933833705235974421e+00,-2.871478129808286983e+00,-2.862187326394458609e+00,-2.940531455068783995e+00,-2.997846819114797334e+00,-2.994193284813300160e+00,-2.909608172147726712e+00,-2.902973761992542645e+00,-2.829511655150267480e+00,-2.668879244080605506e+00,-2.628718560103766144e+00,-2.658187226552108484e+00,-2.720820423543954369e+00,-2.758996902557627529e+00,-2.688468255657610939e+00,-2.729301183926626351e+00,-2.768171856322854563e+00,-2.617554558964182654e+00,-2.336664942615058305e+00,-2.073203614829207009e+00,-1.911437322027347285e+00,-1.817115868361196984e+00,-1.764195488022136882e+00,-1.523409986778734515e+00,-1.060279989592136429e+00,5.909049858784370252e-02,5.398693564337712081e-01,1.424572158130413824e+00,3.709641951029325480e+00,4.784791056571465084e+00,6.100706102987589752e+00,7.836008767300779887e+00,8.672904122676726502e+00,4.056511251822767505e+00,1.246011819153341138e+00,-8.045039262210703646e-01,-1.445037453513377645e+00,-1.660588424851177303e+00,-2.090422580196700242e+00,-2.344099560739868249e+00,-2.579561214354831211e+00,-2.957542221513814518e+00,-3.311196987903812339e+00,-3.373845882911204797e+00,-3.430392274021679455e+00,-3.460745134250065025e+00,-3.457202903317310394e+00,-3.475919810051642855e+00,-3.559930663085834723e+00,-3.597501352570787514e+00,-3.605400856503443219e+00,-3.589527102625415633e+00,-3.576663611839428381e+00,-3.525299443882818906e+00,-3.427946236968338667e+00,-3.213503555766799025e+00,-2.961910172658198448e+00,-2.622190890899478877e+00,-2.435960290278207818e+00,-2.207417480272930277e+00,-1.876097467955357034e+00,-1.705862763464654375e+00,-1.389683053541934443e+00,8.277280446181091156e-01,4.367125940244396709e+00,8.780859477350082543e+00,1.426999591046782889e+01,1.940381963772691520e+01,2.333832373730633591e+01,2.914855881779861946e+01,3.487804800002567163e+01,4.180333425176875295e+01,5.039610847575077912e+01,5.010983459710889321e+01,5.150883613121732196e+01,5.363168768044990031e+01,5.507144239144996334e+01,5.818922404739695509e+01,6.095755857976165260e+01,6.186933826212879950e+01,6.147489513895740032e+01,6.141710820145267036e+01,6.057219760642205131e+01,5.868123623927787236e+01,5.685160240928511399e+01,5.365757178464031085e+01,5.087707147550625564e+01,4.875983654545074586e+01,4.846396337172424040e+01,4.813024942800704054e+01,4.679373502870883783e+01,4.536396445669596744e+01,4.379348995856235405e+01,4.240138687217445579e+01,4.130932461162197455e+01,4.066581817329554838e+01,4.058128662803901676e+01,4.091588449011047857e+01,4.025132793248021557e+01,3.950829211589408629e+01,3.739220996191004787e+01,3.358167711343257622e+01,2.948372634925719638e+01,2.760682069529613614e+01
-9.553006323407613465e-01,-1.522917563507315331e+00,-2.003369931204380450e+00,-2.426771932797146647e+00,-2.781093164892865399e+00,-3.274084408799641022e+00,-3.348972276421815053e+00,-3.366157404199137559e+00,-3.387979994938880690e+00,-3.301991145622976909e+00,-3.230607289214922240e+00,-3.143102205655763370e+00,-3.074522394948643100e+00,-3.056805791733082867e+00,-3.040413101127693363e+00,-3.035904955238958536e+00,-3.082069922662552752e+00,-3.123500234187299274e+00,-3.154992884882381166e+00,-3.099111309184530150e+00,-3.038327128807064348e+00,-2.970590537629859806e+00,-2.873355937604622046e+00,-2.852385679218368164e+00,-2.788531232364751755e+00,-2.777882986439091706e+00,-2.893070324862803133e+00,-2.860503453633913562e+00,-2.799006608252248451e+00,-2.769793934558010040e+00,-2.671808528239738134e+00,-2.418579640078096116e+00,-2.138590099052124494e+00,-2.034326618284179045e+00,-1.948464183847715914e+00,-1.829700698915346146e+00,-1.585179115752517687e+00,-1.105787529516187195e+00,9.925775960218970184e-02,5.988802752249207106e-01,1.328496997133768343e+00,3.140668030621271090e+00,4.427679951430295802e+00,6.393151115979227583e+00,8.725596867019520531e+00,9.901116061212993813e+00,4.837499141521565349e+00,1.847214175519114265e+00,3.282175331726289169e-01,-8.081219363046834303e-01,-1.047824265925214826e+00,-1.401767116256188217e+00,-1.811926627630132458e+00,-2.184547372461976611e+00,-2.526844780290524284e+00,-2.921406706402586373e+00,-3.002953241378514715e+00,-3.023970795463756911e+00,-3.016855364216871838e+00,-3.018604100981779226e+00,-3.036662308917922548e+00,-3.045769459667365009e+00,-3.054790218125687407e+00,-3.109023498888717985e+00,-3.067045645260839226e+00,-3.074031860397189231e+00,-3.031791338605252406e+00,-2.857237934981527783e+00,-2.663500166799861457e+00,-2.313708125104017910e+00,-1.762080544055378839e+00,-1.480563639213877014e+00,-1.076998747649128063e+00,-3.920190889985625260e-01,3.388831831138700568e-01,1.584122307557511711e+00,5.979006163964082354e+00,1.025771703405973412e+01,1.477312494430744394e+01,2.038369346624968870e+01,2.592376260982915426e+01,3.055047357042709066e+01,3.675223652185422196e+01,4.223143395286336244e+01,4.804474455313682313e+01,5.659856399526312032e+01,5.683340852978780333e+01,5.769124793057357437e+01,6.046646719457312713e+01,6.219619904140836297e+01,6.449885214395554556e+01,6.814140452313506557e+01,6.989897664181098946e+01,6.948021086427505111e+01,6.827369356401366929e+01,6.625667112191318608e+01,6.353795693450842208e+01,6.155965719924977719e+01,5.990560192320005228e+01,5.697436689894486506e+01,5.421815966142354171e+01,5.303424293247442023e+01,5.142849530813708725e+01,5.033769871309191046e+01,4.941309430387883594e+01,4.853065945164692607e+01,4.813637306554434758e+01,4.590761511610003964e+01,4.436702262361373528e+01,4.510613732169922940e+01,4.568717078876244386e+01,4.454625029596445529e+01,4.309271422408816221e+01,4.025173058862013420e+01,3.614352738030951429e+01,3.266594088893874925e+01,2.986539668522451052e+01
-9.825295645241514109e-01,-1.523471408663955362e+00,-2.028709780360281822e+00,-2.495357338902865596e+00,-2.872241115638381803e+00,-3.328791290406475589e+00,-3.436340800258172568e+00,-3.505990904718316425e+00,-3.540695700408789115e+00,-3.465393150678224288e+00,-3.352091524345921059e+00,-3.296982417452594127e+00,-3.276167922168121471e+00,-3.249955734315955080e+00,-3.227222035913505316e+00,-3.275083378971878734e+00,-3.329714341476656347e+00,-3.328236853824921404e+00,-3.315765880099947882e+00,-3.274296864083848124e+00,-3.222452626629997319e+00,-3.173645757105607146e+00,-3.145188732088108008e+00,-3.140401106804505016e+00,-3.067596362850540714e+00,-3.003350942299919168e+00,-3.021669246992175317e+00,-2.993399911231213295e+00,-2.950251536882587899e+00,-2.857067720952376266e+00,-2.729583704617009499e+00,-2.487681002276341147e+00,-2.277422700077408102e+00,-2.146540501102189857e+00,-2.017383431730285004e+00,-1.903755236723802646e+00,-1.581741039462232878e+00,-1.198623804390034353e+00,-5.093770637911546606e-01,3.550339264808869411e-01,1.177172465430394777e+00,2.973107571255342751e+00,4.927058606021835985e+00,7.276506476130355949e+00,8.771188353454480335e+00,1.017991655505639059e+01,5.845927151973095981e+00,2.984468974537396235e+00,1.111802188486411991e+00,3.144243749352821360e-01,5.989114310446713718e-01,1.115207976429388875e-01,-9.797220648582161129e-01,-1.510211041274797106e+00,-1.884081170472680089e+00,-2.266386301173613393e+00,-2.426975539428743112e+00,-2.495022329929549088e+00,-2.501580344822368573e+00,-2.495906112729466386e+00,-2.433123243210322251e+00,-2.444406961669599365e+00,-2.448020825311002735e+00,-2.450020143804361172e+00,-2.355775090550217943e+00,-2.326082036998665004e+00,-2.325251615162643226e+00,-2.183301245151032077e+00,-1.959684552862266393e+00,-1.372631009672664382e+00,-1.888431647096991683e-01,1.169030171079751490e+00,3.424569275085014297e+00,5.224457969963887116e+00,6.869270212082302152e+00,8.586342690405849964e+00,1.259147491334434399e+01,1.687729179017554770e+01,2.189827558208435576e+01,2.724901097944232120e+01,3.180629612876488466e+01,3.641527911540318740e+01,4.344989456416285378e+01,4.940964191522881066e+01,5.541598101424499134e+01,6.372957282996014072e+01,6.350042775288048347e+01,6.424653871080667500e+01,6.595594705639160793e+01,6.688868669119224819e+01,6.954756482817866470e+01,7.351284450753979627e+01,7.506680847172302151e+01,7.426781534425218467e+01,7.185722665759534777e+01,6.871463756155733904e+01,6.728743682644623902e+01,6.554763534295112493e+01,6.485930401583689786e+01,6.321967325592719078e+01,6.036129365214021902e+01,5.868715117192650865e+01,5.683927716796428342e+01,5.524723637433789492e+01,5.460871714409685040e+01,5.462366286319519304e+01,5.307770657459686703e+01,5.100749623991715254e+01,4.934493350696966019e+01,4.820776158178689741e+01,4.775753007310198228e+01,4.717735626219835865e+01,4.614223074113242973e+01,4.398791693634791500e+01,3.935648916503235029e+01,3.459845603773683109e+01,3.172693241388013519e+01
-8.592971576873137396e-01,-1.318381132859780758e+00,-1.795553913076221919e+00,-2.271843835621342844e+00,-2.766296979575980863e+00,-3.258814892133760299e+00,-3.430449829175949539e+00,-3.578907482251997951e+00,-3.649905146318024762e+00,-3.607413441540939125e+00,-3.481660505466915634e+00,-3.480343824237575046e+00,-3.511793098061545049e+00,-3.488024775976099168e+00,-3.485982616304209802e+00,-3.603081240000955532e+00,-3.643479983990129956e+00,-3.584928001646274343e+00,-3.556479606609903588e+00,-3.551302398724395459e+00,-3.537432395704339871e+00,-3.541199440762592410e+00,-3.519348210063497184e+00,-3.476033805327148229e+00,-3.393916028332021995e+00,-3.282906962483175040e+00,-3.206526763194042839e+00,-3.172684545604197659e+00,-3.132287303163709513e+00,-2.966779275399651361e+00,-2.782945105594249124e+00,-2.545780846165563105e+00,-2.348333530026925686e+00,-2.133830532790156553e+00,-2.033190329347732916e+00,-2.001430890141812746e+00,-1.597674791530312000e+00,-1.291807264606963823e+00,-8.091822808054840444e-01,1.959399768266946174e-01,9.092573226791584862e-01,2.530703365198857746e+00,4.509090433257995301e+00,6.514836277829142652e+00,8.717261554771194909e+00,1.206720746975548941e+01,7.466851438288114373e+00,3.935311355957621604e+00,1.762399724709313054e+00,1.294789594325774784e+00,2.028633892154723561e+00,1.559384118074065073e+00,1.043290030588547079e+00,3.553372113124556586e-01,-9.040336499751239208e-01,-1.473109226728986698e+00,-1.705522813280463179e+00,-1.779452352043480179e+00,-1.828197149892727191e+00,-1.828215541421086332e+00,-1.667335489796525128e+00,-1.668322543007259462e+00,-1.615230833401095856e+00,-1.462741731218312857e+00,-1.295489556750011539e+00,-1.242022376070285317e+00,-1.367491051292686333e+00,-1.302007894948002953e+00,-1.125690490140943245e+00,4.726421532355248867e-01,3.092749658337980989e+00,6.818559952639973609e+00,1.060882741380920358e+01,1.277578466075100216e+01,1.489031809319255828e+01,1.605610469292081888e+01,1.968554736854994403e+01,2.459356508525578633e+01,2.933302761653933288e+01,3.352646272799058380e+01,3.769469627961986191e+01,4.357227213934947940e+01,5.053996749662542243e+01,5.601136418697760888e+01,6.233608188685809637e+01,7.051443993490462958e+01,6.832187080082259456e+01,6.746972438910385961e+01,6.885089109795268314e+01,6.974893428112086724e+01,7.201225956693276942e+01,7.590203553454917085e+01,7.776470342687468928e+01,7.711297562758127810e+01,7.485940814986875580e+01,7.193766360004345017e+01,7.182246038400398902e+01,7.032106418128759628e+01,6.974246276188202387e+01,6.856230745643155444e+01,6.624329131394013359e+01,6.412512933132764203e+01,6.214511324708968942e+01,6.015018579955803801e+01,5.948762511185536539e+01,6.011409937594647346e+01,5.718995393750175538e+01,5.510821149397416008e+01,5.379960449151423063e+01,5.119690498303997828e+01,4.920516908360892927e+01,4.917710157711378827e+01,4.748387001002325292e+01,4.497285525106752146e+01,4.128041468640026324e+01,3.662594589472354301e+01,3.333581461256370204e+01
-1.418093539901736921e+00,-1.667591641356540144e+00,-2.032351198768752365e+00,-2.476325279965347903e+00,-2.898377633976349177e+00,-3.312023810508053501e+00,-3.469628954120304698e+00,-3.592347582128132544e+00,-3.625832814465590026e+00,-3.637840283641070815e+00,-3.533937594027881879e+00,-3.540212992115391089e+00,-3.596867005042778231e+00,-3.662287599565470231e+00,-3.755214414588482263e+00,-3.873979433758580004e+00,-3.930498731318915251e+00,-3.904919691404824089e+00,-3.869545087682566553e+00,-3.852948305294692233e+00,-3.822599798286488326e+00,-3.787724003988589327e+00,-3.695067959660355061e+00,-3.637875101543667444e+00,-3.609660297317988764e+00,-3.508187139285456002e+00,-3.436556100562226490e+00,-3.421777196670766408e+00,-3.355873674588520039e+00,-3.224895390417739094e+00,-3.126906121611384481e+00,-2.859709850914601503e+00,-2.566195887054969038e+00,-2.337645575370475459e+00,-2.192037880000065275e+00,-2.017150058114872468e+00,-1.623375413458794325e+00,-1.331138603931238062e+00,-1.044668970811035269e+00,-4.729138242001437176e-01,5.328445634004030929e-01,2.223119863817059727e+00,4.963910644046558573e+00,8.320507169854911567e+00,1.166700643829271122e+01,1.580104792263706059e+01,1.094780124682664812e+01,6.693235262434794386e+00,4.047228314461838394e+00,3.374323846396158899e+00,3.253032845375953830e+00,3.006261508550985617e+00,3.265106096608608954e+00,3.143136200643949607e+00,1.854826591151811810e+00,3.994525018612040124e-01,-7.047016547248381446e-01,-8.888061164854440532e-01,-1.124593227785804839e+00,-1.289557128614364334e+00,-1.308181688484603145e+00,-1.164501007586272063e+00,-7.575032448951604103e-01,1.122456914876503314e-01,9.335685440145793379e-01,2.233157991596349312e+00,2.031953401924735392e+00,2.373142882175296453e+00,2.785510853776386408e+00,4.523515832242860135e+00,7.228569658158922273e+00,1.118942747147615968e+01,1.473655405391663287e+01,1.762708227227594193e+01,2.140771738601344154e+01,2.417130149102569092e+01,2.860977795373144517e+01,3.323169697265927880e+01,3.699370939943320735e+01,4.053645919285764165e+01,4.514870473476793222e+01,5.084429324474677969e+01,5.552784357892341660e+01,5.934933260193939475e+01,6.447892234378775811e+01,7.198402568561681392e+01,7.126446717834791400e+01,7.139097781857745417e+01,7.335726502672797267e+01,7.490240923188336808e+01,7.618528645929035292e+01,7.838005575023213112e+01,8.134498099103647917e+01,8.207144402078951373e+01,7.935310990534651410e+01,7.614485850570972048e+01,7.699570344585448822e+01,7.632855748880527358e+01,7.544973007134913701e+01,7.461972166344986590e+01,7.348498885394447200e+01,7.076195781845524380e+01,6.742937829736494848e+01,6.369458498076650699e+01,6.276637035164084466e+01,6.290555648734343208e+01,6.019332891720870293e+01,5.754779125810565432e+01,5.620722228891156647e+01,5.443111065559796913e+01,5.162506680850476215e+01,5.121987723810598681e+01,4.914389500055916216e+01,4.570070738038815250e+01,4.300704842284661567e+01,3.943209941459495127e+01,3.505531311910300474e+01
-1.640909405135705379e+00,-1.844925430642914366e+00,-2.178118902759799802e+00,-2.633926824642192077e+00,-3.071504090485361438e+00,-3.472082785957725459e+00,-3.570324332450168558e+00,-3.625219583116366717e+00,-3.588856064389323475e+00,-3.623561106410509769e+00,-3.603038635149322211e+00,-3.640117144474970701e+00,-3.695147937980531871e+00,-3.819052666717523525e+00,-3.953468282338845619e+00,-4.032851475362695837e+00,-4.094483645386837622e+00,-4.086396823877647577e+00,-4.061241094846055333e+00,-4.051673293317485935e+00,-4.004505921696094539e+00,-3.939930479501911442e+00,-3.832975746449425181e+00,-3.815355943861858279e+00,-3.808239915395242647e+00,-3.686450741827532074e+00,-3.604506919794559838e+00,-3.592693232139102744e+00,-3.502664276495906837e+00,-3.399128838112784656e+00,-3.324732806796542928e+00,-2.989067531333365668e+00,-2.667017446548248127e+00,-2.496028145398921705e+00,-2.356331846526957818e+00,-2.104769021982908939e+00,-1.820859781449621462e+00,-1.664903499049723568e+00,-1.385987948755416754e+00,-7.797978711044051270e-01,8.275495528728870065e-01,3.249513684445950457e+00,5.999073054155037887e+00,9.746116096185174271e+00,1.312419394626951608e+01,1.675962700198307687e+01,1.309262659015390362e+01,9.383202672323925242e+00,6.469591005317398391e+00,5.727608283504461717e+00,5.326595917397789925e+00,5.735346732659703406e+00,6.119348538232030066e+00,6.004980933055700021e+00,5.841650621774192587e+00,4.810217911307199223e+00,2.405683061443607773e+00,1.534304064806195189e+00,8.994373041455479001e-01,3.242711098183180263e-01,2.398237037898182933e-01,1.231259559437503981e+00,2.933458243957264511e+00,4.255663470108942192e+00,5.707535679222252689e+00,8.542563132859466890e+00,8.508086546546893558e+00,8.937541981390488388e+00,9.888514106231294676e+00,1.129613420885735664e+01,1.349817100611069698e+01,1.694158162495051911e+01,2.040557221608899141e+01,2.436676216126343064e+01,2.864001030140461168e+01,3.176091502510332987e+01,3.721936816372218715e+01,4.165384522035925130e+01,4.540960311691244300e+01,4.937010415453976009e+01,5.223349261163819790e+01,5.568650670940491665e+01,6.024222315430717600e+01,6.469182908631236728e+01,6.931814517286920818e+01,7.690011003339631657e+01,7.611221736150049821e+01,7.567693803337839142e+01,7.733335574512358335e+01,7.862551225133847765e+01,8.083499695021997411e+01,8.345181961719814012e+01,8.463335841722201280e+01,8.384379480018486674e+01,8.211353499197279859e+01,8.005975227315062170e+01,8.158339867632886921e+01,8.146075879321072932e+01,8.069338940457403453e+01,8.064370664235542563e+01,7.928785875149635842e+01,7.518116139409801235e+01,7.248555470595690053e+01,6.895401131344078749e+01,6.684214175506434685e+01,6.558025419329348438e+01,6.344933380477748130e+01,6.058794837262907151e+01,5.777575265385263492e+01,5.542194294154766965e+01,5.190405329631717279e+01,5.103243485843204041e+01,4.965262683091543749e+01,4.633709053679756806e+01,4.361192841638482065e+01,4.013042473266683174e+01,3.670648314402546220e+01
-1.743198693382383091e+00,-2.012858245068351870e+00,-2.298910794217027487e+00,-2.679568421278955892e+00,-3.116721920453850547e+00,-3.542328121168127453e+00,-3.585994242662035703e+00,-3.601374122578160808e+00,-3.614335552465306911e+00,-3.648990520020905848e+00,-3.659874672229804560e+00,-3.753407716747261702e+00,-3.836605021151678674e+00,-3.933556950978331912e+00,-4.022469028671365798e+00,-4.125863081831639967e+00,-4.224257720446812137e+00,-4.224483249988352895e+00,-4.181203308571079802e+00,-4.171446735512505555e+00,-4.104612480400326113e+00,-4.020184381977168542e+00,-3.959724460622724429e+00,-3.914542079893489124e+00,-3.871568653384627190e+00,-3.770241261944676125e+00,-3.738752375423926910e+00,-3.751133727314445832e+00,-3.631439772387483167e+00,-3.502684547777520585e+00,-3.408156675592867835e+00,-3.127079659200995287e+00,-2.795443868960577838e+00,-2.527252465391695235e+00,-2.335905054987343465e+00,-2.102262793643735694e+00,-1.999554710234542121e+00,-1.863116534472299080e+00,-1.409894544313699649e+00,-7.396666025627859353e-01,1.067853570417937492e+00,3.995732323219315152e+00,6.472557586581557665e+00,9.731679172690840929e+00,1.305628173599831676e+01,1.656920944805010620e+01,1.396619352858570728e+01,1.159740180411593613e+01,9.622703640922178892e+00,8.436189878501844319e+00,7.995192812174438224e+00,8.966162750867017195e+00,8.920674890206010232e+00,8.663172453002015772e+00,8.884642378678735852e+00,8.421753341959803407e+00,5.783177929710505261e+00,4.733416953318548615e+00,4.285803900071464945e+00,3.600405434479555744e+00,3.471721372482737156e+00,5.049564586400808075e+00,7.046896480022271980e+00,9.208478942074350471e+00,1.131061780572214381e+01,1.407129071927907127e+01,1.545820510318693763e+01,1.672699217171692609e+01,1.785697073619196829e+01,1.888690179375383238e+01,2.003301523812879736e+01,2.260201627751533593e+01,2.624301623966644925e+01,3.038678607576694546e+01,3.402834693810355304e+01,3.747648817454442138e+01,4.356358937202576698e+01,4.942581667639525023e+01,5.301431671045251903e+01,5.638222355397453356e+01,5.820114798231457343e+01,5.975074569768330690e+01,6.475289896561139358e+01,7.003632794061594780e+01,7.519523742538453348e+01,8.250350727966265652e+01,8.082208376014681050e+01,8.043766858642678130e+01,8.142480519836286135e+01,8.305817070814542546e+01,8.549341906197054186e+01,8.728756870647153221e+01,8.774533330268413067e+01,8.665440055129306529e+01,8.641135737701648623e+01,8.499761868592595704e+01,8.653634914969165948e+01,8.697690921387237495e+01,8.574311324437121584e+01,8.428774812707904118e+01,8.249192627951087786e+01,7.824233419615472940e+01,7.520227411064151113e+01,7.309225235957445932e+01,7.066118582134716064e+01,6.812234470976279965e+01,6.597108583756033795e+01,6.381185082566577904e+01,6.118500069878393077e+01,5.778168727964509088e+01,5.329901324952491137e+01,5.104798911357937641e+01,4.944498383528286212e+01,4.693416844625868833e+01,4.414376205909773887e+01,4.054137330146699014e+01,3.753848730731629502e+01
-1.883463030075506195e+00,-2.135673684349222334e+00,-2.480055009307711167e+00,-2.865437885964214004e+00,-3.219293982746664451e+00,-3.604559244750912939e+00,-3.663522031117740330e+00,-3.707471526449681587e+00,-3.756697134175572828e+00,-3.779409214310464282e+00,-3.796437983957953843e+00,-3.882371149513475839e+00,-3.973229832473496703e+00,-4.026990504998919640e+00,-4.051040568608935466e+00,-4.157665215218943722e+00,-4.272532681516518771e+00,-4.260346259571974770e+00,-4.207315792691496803e+00,-4.205916529514587943e+00,-4.112959813471293913e+00,-4.008416748667926299e+00,-3.963757286449855144e+00,-3.861622056768406974e+00,-3.842924282381639856e+00,-3.821396866673911763e+00,-3.763200606164257334e+00,-3.723738666627908867e+00,-3.619422979333856816e+00,-3.512861451810107116e+00,-3.377300032898512328e+00,-3.138859479530167196e+00,-2.918387415640380844e+00,-2.704820332995759191e+00,-2.479151089619683557e+00,-2.282090197823490207e+00,-2.222620345160728927e+00,-1.972257363793705309e+00,-1.501005895155276715e+00,-1.078695692216470992e+00,7.148288925687414919e-01,4.006079126338208951e+00,7.214556444613662300e+00,1.119252608831136975e+01,1.420482646196054155e+01,1.729532222014064047e+01,1.503109439636902245e+01,1.337562885328631701e+01,1.249362508981311670e+01,1.085081366715331619e+01,9.840458554742788522e+00,1.036774921883048073e+01,1.057305647404911575e+01,1.089842941157857759e+01,1.132921231073607515e+01,1.133242275516000497e+01,9.076104650455302902e+00,8.364223349073139246e+00,8.519232549753377626e+00,8.137204878022080479e+00,8.448042589394226809e+00,1.008994816916971970e+01,1.137082916933495547e+01,1.353507969113548803e+01,1.634612323647306908e+01,1.893215671090282726e+01,2.109585458529334190e+01,2.243690200118142286e+01,2.410088961435436516e+01,2.502817480281275309e+01,2.599307359504948423e+01,2.804754320560605763e+01,3.096527322312160990e+01,3.435439237387712552e+01,3.860315209986686824e+01,4.374673421884729407e+01,4.924824760224608156e+01,5.531238553643471789e+01,5.901156026411614164e+01,6.205882605166586785e+01,6.441952653097531822e+01,6.590169659981850714e+01,6.965189817718321308e+01,7.403344155633610058e+01,7.977579746180198583e+01,8.683332224063491367e+01,8.513277929070817152e+01,8.569018899272322187e+01,8.576404649640561217e+01,8.751613147450663632e+01,8.947726180062490187e+01,8.993097135626653937e+01,9.016409759481328479e+01,8.927929267895065379e+01,8.902639511450531984e+01,8.675694228916194106e+01,8.799959461902190583e+01,8.870921665055354310e+01,8.809984947394700328e+01,8.631080680734180532e+01,8.390311782469467516e+01,8.002521941722552867e+01,7.582264763096543447e+01,7.434385774935991265e+01,7.286644044485242944e+01,7.029347088107434161e+01,6.779584009419968993e+01,6.602825213383951564e+01,6.416367392097048139e+01,6.025517898677782824e+01,5.600957249842217323e+01,5.337978076233333269e+01,5.033138283227462040e+01,4.742727389355372480e+01,4.550364693862655940e+01,4.268479539250663635e+01,3.931131517371174766e+01
-1.866099559526751550e+00,-2.198328876496371542e+00,-2.592399655823351967e+00,-2.941656927702793300e+00,-3.319324195681195633e+00,-3.709169308078599236e+00,-3.727675349424521389e+00,-3.760082503085745209e+00,-3.834878494939688576e+00,-3.900280632134797809e+00,-3.998323925250707234e+00,-4.086842143799307436e+00,-4.106137531940282415e+00,-4.060372811331185439e+00,-4.024010248420583302e+00,-4.075553918994035740e+00,-4.201434962742446544e+00,-4.200805548118588639e+00,-4.190536680509409528e+00,-4.167634960185286452e+00,-4.058308206124606521e+00,-3.972135579396347982e+00,-3.852391318488440852e+00,-3.736083277814020054e+00,-3.789874543853680500e+00,-3.819000663497921888e+00,-3.726960003968727175e+00,-3.631752530611981111e+00,-3.554411626099295507e+00,-3.452051076529771390e+00,-3.276342672151627777e+00,-3.119897355286835428e+00,-2.943415971543498433e+00,-2.763598623242577101e+00,-2.593883858452127988e+00,-2.464573850641416097e+00,-2.429656184654525486e+00,-2.185380483897675141e+00,-1.757879263951409143e+00,-1.125810148861719817e+00,1.291246631867091654e+00,4.541280235977782631e+00,7.595907559328033187e+00,1.118130764996661242e+01,1.385685827828051941e+01,1.663295597524107095e+01,1.569133066429786005e+01,1.468228493075534757e+01,1.431637795133892865e+01,1.349596814068946316e+01,1.247917593566970140e+01,1.174796079497951951e+01,1.153755477394395079e+01,1.170224578438931928e+01,1.319668903190390274e+01,1.384234780356392314e+01,1.195729278352013125e+01,1.192500278741442621e+01,1.348550672150067520e+01,1.493579889893379864e+01,1.653654146412673143e+01,1.648218384373141276e+01,1.697720769011508679e+01,1.808242209268919964e+01,2.021977672232369372e+01,2.282801237236764180e+01,2.544379081071776127e+01,2.781393772817344612e+01,3.064723810376075264e+01,3.247419401619375634e+01,3.379467098824866156e+01,3.411534788141864993e+01,3.579574778824766668e+01,3.890729104976163200e+01,4.262722541518164121e+01,4.759871472865410880e+01,5.439426136641503717e+01,6.045675786733559676e+01,6.447647602400301992e+01,6.803108045022803196e+01,6.935580747544830160e+01,7.141734225793094026e+01,7.434157480823260755e+01,7.780484633491045088e+01,8.395617343386689413e+01,9.206434373967512386e+01,9.105138047327929485e+01,9.028796426521788021e+01,9.008999723722516251e+01,9.212650290249240470e+01,9.348367253302230040e+01,9.349829042703873938e+01,9.220839253886286713e+01,9.012952814587323758e+01,9.019366997171282208e+01,8.947632133818653699e+01,9.101444881527736186e+01,9.025014404982790950e+01,8.908101484870745423e+01,8.678319894132503975e+01,8.282747908131955228e+01,7.974903967302641661e+01,7.638054264340176758e+01,7.468111837092988026e+01,7.335344400878922499e+01,7.130268189424194247e+01,6.888090808829842615e+01,6.769048297105533152e+01,6.622821958693184285e+01,6.301771832172749299e+01,5.972653736090603616e+01,5.566156814862155500e+01,5.083837446364343293e+01,4.676546831886971489e+01,4.515517885166160994e+01,4.364251286484269343e+01,4.053931823603218731e+01
-1.677850135840861956e+00,-2.201474024965155429e+00,-2.672246891299167704e+00,-2.999198257773683984e+00,-3.344142920008591258e+00,-3.686047600100371913e+00,-3.768080748455536977e+00,-3.872704416222831902e+00,-3.976525930873457959e+00,-4.070977449052498365e+00,-4.154352435327971271e+00,-4.203614039862056728e+00,-4.260102634981169700e+00,-4.227407456590955626e+00,-4.170200643362682591e+00,-4.204342189341697456e+00,-4.270757087321300993e+00,-4.245823393774877275e+00,-4.234372166059404030e+00,-4.175150174325862551e+00,-4.060598482677892918e+00,-4.026762414731473783e+00,-3.964860413849844001e+00,-3.935533976135047407e+00,-3.963751916661701014e+00,-3.911502060133989378e+00,-3.807080949008277759e+00,-3.693252095965000148e+00,-3.561791692194176129e+00,-3.393249269103879140e+00,-3.160591473266606943e+00,-3.086959246498632847e+00,-2.962687144531628292e+00,-2.822862297445181579e+00,-2.647544126810329690e+00,-2.513715599806579437e+00,-2.395469966688613006e+00,-2.051287976644842637e+00,-1.636604389123762049e+00,-7.130740823051976429e-01,2.873577599287554740e+00,5.340506348030392481e+00,7.794456899835363828e+00,1.074522501019648857e+01,1.228187392663950206e+01,1.417584369821710233e+01,1.473854464502898409e+01,1.495923901499641495e+01,1.553067098160670589e+01,1.636975703547751237e+01,1.742008494176490530e+01,1.656753848225881853e+01,1.579324969902623899e+01,1.540103648259062830e+01,1.584902845922669634e+01,1.467049622951412147e+01,1.390869187889207481e+01,1.512773704851228729e+01,1.674605496397544968e+01,1.853335929940267235e+01,2.161242150074079404e+01,2.149556026251044116e+01,2.225501039767218714e+01,2.314869766904093140e+01,2.452073344822904843e+01,2.693192968954442534e+01,3.008446477137609776e+01,3.401351512046936421e+01,3.657899874299119602e+01,3.822587509529026306e+01,4.014927783052449684e+01,4.020170856805684423e+01,4.180508944767565538e+01,4.535851397304072208e+01,4.957818565529520072e+01,5.491201025223229948e+01,6.101426052512560005e+01,6.570169790223658879e+01,6.856618843201252389e+01,7.190404695986372019e+01,7.316770176679756332e+01,7.633280444546871024e+01,8.074711495309335874e+01,8.489848714415423103e+01,8.987849962441697471e+01,9.665161624864190060e+01,9.563810356652840028e+01,9.312864916570825358e+01,9.128240768117842663e+01,9.251767645053678280e+01,9.318996790298204758e+01,9.344165258601294966e+01,9.370538422936694190e+01,9.320165904650691857e+01,9.264743271758715082e+01,9.226128001327295181e+01,9.406980810762316025e+01,9.202094105077074460e+01,8.954790143018287552e+01,8.623856438610347652e+01,8.158289002225694730e+01,8.007323536296100031e+01,7.868795401593266092e+01,7.796034444877976455e+01,7.731904472014389285e+01,7.637391031242118800e+01,7.240107089059787882e+01,7.065205621695285743e+01,6.776715020002842493e+01,6.391409038113622643e+01,6.101249336599106243e+01,5.624306860545836884e+01,5.258404998889523796e+01,4.959669311474556963e+01,4.679695647818850546e+01,4.452574512494423686e+01,4.102601058671832845e+01
-1.677315741987998710e+00,-2.316928044101445483e+00,-2.755683858980582546e+00,-3.066330261451790218e+00,-3.372345182557062948e+00,-3.653100514020115153e+00,-3.791521036289268398e+00,-3.953333486916021045e+00,-4.072032234756969515e+00,-4.176472363046100256e+00,-4.290474300410568098e+00,-4.318597293290392436e+00,-4.369644769028591114e+00,-4.370517086366144888e+00,-4.308587386937287711e+00,-4.273095221090605023e+00,-4.289871118962477858e+00,-4.263257878484307817e+00,-4.221205981684434505e+00,-4.194976859537201008e+00,-4.152729459008789092e+00,-4.140038044172581699e+00,-4.089924102232560088e+00,-4.077726492492483423e+00,-4.085790909738122423e+00,-3.990079197655592491e+00,-3.858810172071157396e+00,-3.728965348348070474e+00,-3.559749447834143155e+00,-3.400720667396806007e+00,-3.145292995628422794e+00,-3.072898947488266863e+00,-3.049375450384740116e+00,-2.932995305326301594e+00,-2.769483555981996137e+00,-2.643199304829169538e+00,-2.430960237914588706e+00,-2.007595075364346116e+00,-1.539895874980009349e+00,-7.585093903381965319e-01,2.967891338435330262e+00,5.807688408726163765e+00,7.974027543655637373e+00,1.040812262809778765e+01,1.149872876094051932e+01,1.276074343390281562e+01,1.357688011165348030e+01,1.469876706848737236e+01,1.612914903993039317e+01,1.796080862831574976e+01,2.124016663911704583e+01,2.092771184934768058e+01,1.964182557356111047e+01,1.839856979554629035e+01,1.783234785776624065e+01,1.722086077813571237e+01,1.789675470035154703e+01,1.977352557182413406e+01,2.080704241568379942e+01,2.215794207657306103e+01,2.632880634641231765e+01,2.651809637510542927e+01,2.755080723283949951e+01,2.858960376864887465e+01,2.936172548759030576e+01,3.204005856917034833e+01,3.586416833975859930e+01,3.935271522399578714e+01,4.234162137868167974e+01,4.409431381172635156e+01,4.606840821583880086e+01,4.695433089328528098e+01,4.840076088523729680e+01,5.165123176655710324e+01,5.653534057575332383e+01,6.235239530592324542e+01,6.637805858562798278e+01,6.896624105922525416e+01,7.127523063268236569e+01,7.495081024894187749e+01,7.678895844255399084e+01,8.043466119204335030e+01,8.549429893401938330e+01,9.001571691934667285e+01,9.412160600340287431e+01,9.920946323534657552e+01,9.754065076424768677e+01,9.448617834537760984e+01,9.225982024130472325e+01,9.220623602032839017e+01,9.240279538791344294e+01,9.355992502003662992e+01,9.529984984749374632e+01,9.614015059539613617e+01,9.510002495277650780e+01,9.318572214009626009e+01,9.455700486738533073e+01,9.378338831736598991e+01,9.094445360049837745e+01,8.660390401924325943e+01,8.150741395105029596e+01,8.100453095095012657e+01,7.976354426812358156e+01,7.999693345125554345e+01,7.959825262862310069e+01,7.839682090342171250e+01,7.510014399583616296e+01,7.263243248095092497e+01,6.837225292750537164e+01,6.444232980186249904e+01,6.126292478241492745e+01,5.663487862052108568e+01,5.400052331616443269e+01,5.226817333197548265e+01,4.874566013114288410e+01,4.510787846973662596e+01,4.119928351268028166e+01
-1.675910818902128119e+00,-2.333696975935212414e+00,-2.811546521212191951e+00,-3.157447462044586928e+00,-3.477737939129484257e+00,-3.742792495529628560e+00,-3.850957728044295258e+00,-3.988581803600776965e+00,-4.115854293361927319e+00,-4.224250990242907733e+00,-4.357487096898684520e+00,-4.376533339214114804e+00,-4.394207655233477894e+00,-4.398625310710658987e+00,-4.391576675746543756e+00,-4.350113813974827437e+00,-4.307415445196029147e+00,-4.268118115375432176e+00,-4.211606424639258606e+00,-4.234551043406582060e+00,-4.265022517650109535e+00,-4.262617701629898725e+00,-4.226643172053733188e+00,-4.233406238427820156e+00,-4.225653773184674833e+00,-4.092355676369813011e+00,-3.923532192286997677e+00,-3.765470941183796327e+00,-3.578794801523152547e+00,-3.450817910687347112e+00,-3.262258845025368004e+00,-3.238211466103158021e+00,-3.219974609531873089e+00,-3.033677145176735035e+00,-2.850135460551924460e+00,-2.696809372277362726e+00,-2.472048220590114198e+00,-2.072408900840815527e+00,-1.448848711936455702e+00,-5.201625817817258080e-01,2.637406837611236732e+00,5.260872576857597238e+00,7.649603924965130197e+00,1.015574667060793956e+01,1.190232976116346464e+01,1.369076846980070528e+01,1.443951196988701291e+01,1.614530810285576834e+01,1.789926164792673902e+01,2.018215674286891925e+01,2.357818029628491630e+01,2.252136722340251040e+01,2.228943949337430297e+01,2.170903965306776229e+01,2.038280107707689837e+01,2.068573264876131645e+01,2.174015787605204508e+01,2.311039492775127968e+01,2.523760615105717520e+01,2.789545229082082400e+01,3.194388112820795911e+01,3.160065840960210437e+01,3.262463436587356824e+01,3.351247188625827533e+01,3.387981241446586722e+01,3.707106598451911594e+01,4.185257313306317428e+01,4.512821855087216960e+01,4.819733235790686621e+01,4.969251635394542177e+01,5.091846428873377306e+01,5.193887384167626919e+01,5.374537557965756918e+01,5.719853137260939491e+01,6.127047504486740337e+01,6.603036611216784024e+01,7.027370995538321097e+01,7.313284293247696155e+01,7.494489329684877532e+01,7.903792738252971617e+01,8.174186116997339013e+01,8.611203352521300758e+01,9.057887476741971966e+01,9.419974211888617788e+01,9.739107050107232055e+01,1.007477924480195384e+02,9.881133413075995975e+01,9.559912284463500498e+01,9.441459751214649998e+01,9.448954801912540802e+01,9.425144020784080112e+01,9.578254492375950235e+01,9.638228020177892574e+01,9.594351812894817044e+01,9.663571826579432411e+01,9.539697972987684693e+01,9.513033393979470986e+01,9.443808048565522029e+01,9.214371580555146579e+01,8.766654978879617488e+01,8.218380308899193665e+01,8.183176290643056916e+01,8.021312812114459234e+01,8.088929862765044732e+01,8.090075722603677377e+01,7.960781838895239559e+01,7.578864876168408671e+01,7.141180490269182712e+01,6.718302546554716059e+01,6.455208494898734273e+01,6.228824024608533705e+01,5.868020894527171549e+01,5.496425330809395149e+01,5.242342164267089544e+01,4.944357985117902388e+01,4.566759786838266422e+01,4.122479562841915879e+01
-1.943148289087537339e+00,-2.499409293153103562e+00,-2.980047960542333119e+00,-3.331214560114325707e+00,-3.565936067592424763e+00,-3.757602578154641382e+00,-3.873755166632179225e+00,-3.991238042891208870e+00,-4.142052117597539329e+00,-4.273781859410976658e+00,-4.322810305243423912e+00,-4.329253912913605618e+00,-4.384343395927608356e+00,-4.430024292385518869e+00,-4.460712553175991246e+00,-4.456925198860510307e+00,-4.368729490744130750e+00,-4.278850675945554016e+00,-4.246093027830232458e+00,-4.284951165011756657e+00,-4.346924979710614423e+00,-4.401886595927574142e+00,-4.402603682408935626e+00,-4.374354739721636243e+00,-4.311806171994303050e+00,-4.182719546003575317e+00,-3.997431162095313795e+00,-3.822592290677593763e+00,-3.665688706611653025e+00,-3.515424154294177761e+00,-3.395821019044478639e+00,-3.398214979148824089e+00,-3.368526949687733918e+00,-3.232864502678856056e+00,-3.021515341507901020e+00,-2.763651265806375434e+00,-2.473123115323085042e+00,-2.063855641349943593e+00,-1.494272441565841936e+00,-7.239278657598527955e-01,1.611823736407235863e+00,4.089203416895775156e+00,7.001304147066838901e+00,1.012412584092574086e+01,1.283036049664271161e+01,1.599783785051289264e+01,1.672563047174438466e+01,1.772915846798313311e+01,1.897522322754764090e+01,2.080997679496373820e+01,2.348129671565291332e+01,2.336155303501917757e+01,2.475327366557968389e+01,2.626725986657406509e+01,2.549534191374136682e+01,2.475721039879100616e+01,2.576995436677479390e+01,2.717096517623848939e+01,2.929702216974988715e+01,3.287520867045247286e+01,3.725098629527361993e+01,3.760165052256996887e+01,3.755783016306205724e+01,3.848465510996570771e+01,3.991051422400423121e+01,4.266414927515979372e+01,4.841366931562711073e+01,5.219539978794444579e+01,5.331798347668971161e+01,5.404334084346324119e+01,5.576944587840247891e+01,5.723030524950696929e+01,5.809502513928952538e+01,6.085204691691745893e+01,6.516374609151399966e+01,6.897549575784260867e+01,7.232177089192063590e+01,7.529554938575577694e+01,7.778277251227206079e+01,8.234339602827883198e+01,8.585782481873137328e+01,9.063806699873596529e+01,9.513537427103145205e+01,9.836997438661752824e+01,1.006727450260461154e+02,1.023210929482423523e+02,9.894830405646300164e+01,9.602554784217994666e+01,9.599823326991082695e+01,9.717800432485029205e+01,9.695159127678950028e+01,9.747705688558301063e+01,9.734661684802144066e+01,9.554702493647974393e+01,9.650189362095555623e+01,9.698243380309440909e+01,9.706527575743488967e+01,9.543754516157480339e+01,9.352332756820379700e+01,8.964610865702937303e+01,8.328239930841148464e+01,8.225260051506583636e+01,8.146740376922743110e+01,8.217098333171026070e+01,8.106751924627671713e+01,7.889844701070143174e+01,7.439154782073400440e+01,7.015937496844475163e+01,6.646434305219014504e+01,6.301910952592560733e+01,6.140522508345309660e+01,5.950020972648825079e+01,5.653065227737587861e+01,5.355404349039223888e+01,5.032553014933701974e+01,4.697750048817857049e+01,4.192965750692641791e+01
-2.121065851634821087e+00,-2.668177704875647649e+00,-3.074508975968867297e+00,-3.368284635323462783e+00,-3.586383055206084691e+00,-3.762955310425176059e+00,-3.880087733179108156e+00,-3.970894040458879726e+00,-4.071796380205414678e+00,-4.157220941094172062e+00,-4.221690028302759856e+00,-4.336312298062489745e+00,-4.393899456937202075e+00,-4.446404723359873579e+00,-4.470973516692680505e+00,-4.460488648103529741e+00,-4.384994144583504116e+00,-4.304651289856587404e+00,-4.297310105864976748e+00,-4.353417429328914068e+00,-4.444739243388150740e+00,-4.541574418700643712e+00,-4.577896524346625640e+00,-4.518545693008269026e+00,-4.376012099430472091e+00,-4.221191702422728120e+00,-4.067787267759354286e+00,-3.928648128767739500e+00,-3.861747226794769450e+00,-3.756631310683363090e+00,-3.679248413228813686e+00,-3.642559078167034059e+00,-3.522157632523158277e+00,-3.346770864838245263e+00,-3.138271821665147510e+00,-2.815552147356384260e+00,-2.559218287787188739e+00,-2.270557870267290390e+00,-1.839273520352046720e+00,-1.370781290838215982e+00,-2.540755972526267947e-01,2.681375573089472830e+00,6.117141079919594659e+00,9.934632918023753589e+00,1.317568780227716019e+01,1.728941107743425576e+01,1.789755898546786383e+01,1.807370619699344871e+01,1.932719922595616424e+01,2.124713959908195449e+01,2.358567227913926700e+01,2.573005681718556659e+01,2.705759791051269758e+01,2.898341719318723619e+01,3.100978222016857444e+01,3.134892966151256744e+01,3.226994747095978511e+01,3.366071544586845476e+01,3.437901586258148257e+01,3.748960438992421018e+01,4.100752306841825146e+01,4.141001122068887241e+01,4.214812421835861755e+01,4.503799951717606831e+01,4.754404820385141761e+01,4.978462649614966296e+01,5.481607133670535603e+01,5.734256500982905180e+01,5.859181433319731980e+01,6.069701129121826710e+01,6.143673516993418815e+01,6.189786917817512801e+01,6.291763057349091781e+01,6.610087312026409734e+01,7.036853826284549029e+01,7.291082305672939867e+01,7.437096264845094140e+01,7.647289852008510991e+01,7.853167420791035624e+01,8.242522155780800119e+01,8.699407251421006038e+01,9.236626318748027131e+01,9.695248954869884983e+01,9.986397250872752807e+01,1.011815737021383086e+02,1.010302625512342871e+02,9.781268901653000114e+01,9.675212181146108037e+01,9.660686101868255093e+01,9.761322024523114749e+01,9.894507504306466217e+01,9.941733541925803763e+01,9.975050295662488509e+01,9.777256814713621225e+01,9.610594643550159333e+01,9.542333906666512178e+01,9.761976646598365903e+01,9.681967233259996419e+01,9.532717950958350173e+01,9.209220113449217138e+01,8.666105557146889282e+01,8.583731001830174989e+01,8.340439818499254443e+01,8.166207631522317456e+01,7.940730692821713887e+01,7.633548202658927551e+01,7.164970480713600409e+01,6.805143141250152894e+01,6.625868811102947120e+01,6.334932476071563912e+01,6.160516300142355561e+01,6.034696084822148521e+01,5.796420904422159737e+01,5.438581958319404208e+01,4.981281963302318871e+01,4.583333878835425423e+01,4.138405177959753445e+01
-2.282999486342438100e+00,-2.706178551111500408e+00,-3.042808207990261860e+00,-3.322290482253412947e+00,-3.595569725410972417e+00,-3.823191809783510475e+00,-3.861915968097861196e+00,-3.916508086411565337e+00,-3.982820090208219366e+00,-4.002900456704492349e+00,-4.112337284452293851e+00,-4.289300532802290178e+00,-4.349430036072879702e+00,-4.366310065748139735e+00,-4.401265935270758156e+00,-4.412193919964793487e+00,-4.386323936111812039e+00,-4.372760615939378148e+00,-4.387640665803439255e+00,-4.480723246910002899e+00,-4.547454924875216520e+00,-4.559198551517689602e+00,-4.606775801756051614e+00,-4.571944451035525603e+00,-4.381821225471659531e+00,-4.126529961830520676e+00,-4.011101669091842403e+00,-3.932716577354640641e+00,-3.862894402564358565e+00,-3.816184728825020578e+00,-3.830680084648915962e+00,-3.750789660171564677e+00,-3.542035001923756532e+00,-3.304326265206135815e+00,-3.047900210383837294e+00,-2.683291803148146748e+00,-2.528893986087633827e+00,-2.313432243364516694e+00,-1.942104520430170567e+00,-1.513438676233841873e+00,-6.341177321739978057e-01,2.854601279045693385e+00,6.826475114742029504e+00,1.162866481777108696e+01,1.560381273945491820e+01,1.979864708507800231e+01,1.968811197379077882e+01,1.943037975162521391e+01,2.051268885815114729e+01,2.165678881384178212e+01,2.311277038831257613e+01,2.653503759496179981e+01,2.863329480474976663e+01,3.041560702290102824e+01,3.308172972745895635e+01,3.568455761958199446e+01,3.678291161519546648e+01,3.823306313561214154e+01,4.023582129744386293e+01,4.267862549410062911e+01,4.443742066928618328e+01,4.549706264301312331e+01,4.804045727742862937e+01,5.061956337073769419e+01,5.266809278750464784e+01,5.520665413344059402e+01,5.907121902174997530e+01,6.099422684467163691e+01,6.247470130916362052e+01,6.442227845928560725e+01,6.565073971098895811e+01,6.619607754937013055e+01,6.767981533965655672e+01,7.024633947186192984e+01,7.267692723336459437e+01,7.449318161272486805e+01,7.544807171334925044e+01,7.722377001940216701e+01,7.914231186233418214e+01,8.157480963989891620e+01,8.648481988685959720e+01,9.197766722217050983e+01,9.611099291253901811e+01,1.002475160635894582e+02,1.026221924845991396e+02,1.029644035379888578e+02,1.008609226591401864e+02,1.003421510633732368e+02,9.990592511468169334e+01,1.003035612898772797e+02,1.015288594349669751e+02,1.016403600792545490e+02,1.009431194257305293e+02,9.936635196643267420e+01,9.712354684107552316e+01,9.420172053755008790e+01,9.498478877606905257e+01,9.507697827732184237e+01,9.463670290297605447e+01,9.340826386938523740e+01,9.098959576073862365e+01,8.833503305363728941e+01,8.364869586952761438e+01,8.001666803002859751e+01,7.747119319573796759e+01,7.380545280620809478e+01,7.003965679332951311e+01,6.767648888396378482e+01,6.716818298482847638e+01,6.541237321457981579e+01,6.399675932236228704e+01,6.152433721423143709e+01,5.813308202779795408e+01,5.422466402327464152e+01,4.937929594761239827e+01,4.525506221050112998e+01,4.147967834846673441e+01
-2.413572598772440347e+00,-2.804578963243136158e+00,-3.101329842307316564e+00,-3.390992965675998949e+00,-3.584391795165169370e+00,-3.743306198846558797e+00,-3.771212091921778420e+00,-3.855924286570591164e+00,-3.970329342303279940e+00,-4.005061296608020349e+00,-4.061574598690408600e+00,-4.191349191432776067e+00,-4.305437172841200422e+00,-4.335909912149219281e+00,-4.381331609497446600e+00,-4.414116359137214118e+00,-4.420253009388086518e+00,-4.454306476241267632e+00,-4.464517149623220327e+00,-4.567792991756181031e+00,-4.660986711899256285e+00,-4.669129999783089957e+00,-4.642488814299047029e+00,-4.545783921636605385e+00,-4.420918656406187530e+00,-4.189100555218462141e+00,-4.055562257143980887e+00,-3.977553267126907155e+00,-3.892308522064176657e+00,-3.889738820982023615e+00,-3.916854332346398238e+00,-3.748237265259540596e+00,-3.535292586400293757e+00,-3.328561870748165230e+00,-3.047843507745031655e+00,-2.673413187448808959e+00,-2.506290042406601692e+00,-2.226005200883649504e+00,-1.900308215300973380e+00,-1.482050646006445316e+00,-7.712097089309577491e-01,2.360798800333357317e+00,6.162013134693681948e+00,1.115927436247766558e+01,1.625334530993147197e+01,2.096492509465823417e+01,2.047468853220092910e+01,2.013477550393148618e+01,2.110688566074704298e+01,2.153329202206764492e+01,2.219550052465137213e+01,2.611232734248498133e+01,2.975058163308596093e+01,3.217492057306884590e+01,3.440320615758798795e+01,3.821119903199951295e+01,3.997645988029037056e+01,4.197528731420585757e+01,4.475065857004944547e+01,4.590368368723071768e+01,4.711643755169141912e+01,5.011782124179146081e+01,5.328989737842945829e+01,5.426671124993882245e+01,5.554981440399063075e+01,5.809577783826747321e+01,6.178594009879994786e+01,6.415104115265185669e+01,6.615756490270629797e+01,6.823576921955495322e+01,6.968803421552074440e+01,7.041303320227981999e+01,7.149217528239019259e+01,7.253631513833725819e+01,7.355407693092588772e+01,7.509594246109485027e+01,7.665231426422684535e+01,7.921956783374689337e+01,8.215558858977729528e+01,8.429223691251198147e+01,8.778856483336467420e+01,9.128523907826972561e+01,9.401840808753982515e+01,9.841030220673719953e+01,1.025288870586428089e+02,1.040656232407759063e+02,1.022463008828476774e+02,1.014351452671570115e+02,1.013658741126223077e+02,1.018069983114243797e+02,1.028081617639516736e+02,1.027137863275157628e+02,1.010563681598002006e+02,9.995867864103951206e+01,9.848345086927551506e+01,9.465015401318864008e+01,9.388394523827662397e+01,9.471807660867271750e+01,9.358185003895174248e+01,9.262104301904658143e+01,9.224331450662441512e+01,8.755222672851611776e+01,8.323822339666293146e+01,8.030017200621618656e+01,7.686373169286078166e+01,7.201500745938734838e+01,6.988489827055090586e+01,6.947565013782060817e+01,6.881176277723345436e+01,6.678042325553457204e+01,6.507895686532572199e+01,6.152563756805887607e+01,5.741744748396906317e+01,5.346717109920608380e+01,4.881612128678335694e+01,4.499706556487578268e+01,4.157564965049403582e+01
