-3.762002368862247703e+00,-3.838148064132561821e+00,-3.928408592502555141e+00,-4.051412256623285302e+00,-4.140265665211571466e+00,-4.444161968448544719e+00,-4.710887954611512107e+00,-4.902239487603890389e+00,-5.101741891507355575e+00,-5.264636973938347175e+00,-5.350108870809546779e+00,-5.495630530126224045e+00,-5.680162801431187347e+00,-5.850101940164642578e+00,-6.052588994699670266e+00,-6.155779948409539237e+00,-6.209597677230662249e+00,-6.271563524725728200e+00,-6.365846082116444649e+00,-6.474102510609796468e+00,-6.608835425184531154e+00,-6.740590327838583029e+00,-6.823214860686132255e+00,-6.801844589490280590e+00,-6.796327993459692962e+00,-6.787698605996065560e+00,-6.798075122381533220e+00,-6.913425984926245604e+00,-6.975473338507965693e+00,-7.013260328723477599e+00,-7.034073890529442430e+00,-7.080153131940543965e+00,-7.069309864016050327e+00,-7.034448883600819435e+00,-7.010623882885426816e+00,-6.966347169725930044e+00,-6.954362608833796422e+00,-6.968607188680394415e+00,-7.045011060222424071e+00,-7.011392570078130326e+00,-6.963705114904001903e+00,-6.915678067727746736e+00,-6.830263525753620613e+00,-6.779074436996101127e+00,-6.764031358137029493e+00,-6.746534515671410936e+00,-6.721108160308379098e+00,-6.660223802781007230e+00,-6.583527582373401188e+00,-6.485290477599241044e+00,-6.366362552285029786e+00,-6.314015217404822522e+00,-6.233618089666597584e+00,-6.120664880047772982e+00,-5.938650158683384639e+00,-5.633575470989747203e+00,-5.343327689010974879e+00,-5.057930463263852872e+00,-4.765205785097748503e+00,-4.600871454804998706e+00,-4.387444788733787959e+00,-4.190011001903676480e+00,-3.956513922213423573e+00,-3.684662537470759336e+00,-3.430187964951578294e+00,-3.184896660973061788e+00,-2.916681738289993664e+00,-2.667697578012631965e+00,-2.571161619551350253e+00,-2.502743860748487759e+00,-2.397538791227912469e+00,-2.109204501484459371e+00,-1.865750876147579840e+00,-1.358865724068730740e+00,4.379551404319952379e-01,1.938591360053758761e+00,3.355682534533037664e+00,3.657598276385193969e+00,3.628062949743882548e+00,6.796844840004379051e+00,9.875372178004484525e+00,1.368383026099837707e+01,1.673658332231484991e+01,1.722440985018504378e+01,1.719472183299258461e+01,1.681538682232678639e+01,1.733193475983972220e+01,1.874655694500695446e+01,1.897892407072507837e+01,1.871662087227050364e+01,2.014015157574636206e+01,2.216918812354044022e+01,2.138509581845604401e+01,1.985836040074505604e+01,1.838090030439734335e+01,1.645097002956373089e+01,1.565582168159064302e+01,1.626712050258543130e+01,1.846655750531751039e+01,1.750332386156953746e+01,1.618452265668571499e+01,1.483890421387132541e+01,1.486626265165472560e+01,1.314979870235092108e+01,1.103506454531835779e+01,8.066157662992857524e+00,4.463253524296155739e+00,4.648314151665978500e+00,3.780998773226433851e+00,3.205116326821920492e+00,2.252748087085251871e+00,5.346750688774830618e-01,2.102046730751330195e-01,-4.434740885655259479e-01,-6.468738333214046898e-01,-6.851846250848324660e-01,-1.201158663872207155e+00
-3.677882088235016056e+00,-3.794339239175902545e+00,-3.907671494445606353e+00,-4.027148262219798269e+00,-4.097559585830109263e+00,-4.405785953835569480e+00,-4.714915600368339454e+00,-4.882409526761997576e+00,-5.048271547728172770e+00,-5.214449437104069496e+00,-5.353796315643474024e+00,-5.484928541597956730e+00,-5.623778310919023582e+00,-5.796286702439709337e+00,-6.023405352967248660e+00,-6.149279636481466582e+00,-6.227221102942603892e+00,-6.321571242956942172e+00,-6.408424599523157461e+00,-6.511285796044287366e+00,-6.617550617484664777e+00,-6.707799561949475020e+00,-6.790496780801642096e+00,-6.786316477912849088e+00,-6.806321699240370116e+00,-6.812910726343000434e+00,-6.830241969947380198e+00,-6.919001020570682670e+00,-6.979383067447810340e+00,-7.051084204827586355e+00,-7.073675295653818473e+00,-7.078182526767723637e+00,-7.060157738589365906e+00,-7.036093741309564997e+00,-7.022102136718336496e+00,-6.990422837638901932e+00,-6.968212242992757766e+00,-6.963613347722013458e+00,-7.011666246436004890e+00,-7.033215119423616102e+00,-7.017275415455375587e+00,-6.945578411233177540e+00,-6.844500666501907915e+00,-6.757449266891307538e+00,-6.716532532551753754e+00,-6.722835342308548512e+00,-6.734211752628591618e+00,-6.668413038431500794e+00,-6.572818532248294154e+00,-6.437931514858847848e+00,-6.310946556036514110e+00,-6.297410059657577719e+00,-6.226961526792752721e+00,-6.076772799054056762e+00,-5.863809623256639014e+00,-5.580279122480104270e+00,-5.327877512956678885e+00,-5.058903757998510109e+00,-4.769240543063834714e+00,-4.615050102199874438e+00,-4.439809049507036143e+00,-4.277027860608006549e+00,-4.045654160005690336e+00,-3.749669923902769764e+00,-3.488158099696571757e+00,-3.238748510994606367e+00,-2.988456623832756343e+00,-2.692958503738881681e+00,-2.462144039216706215e+00,-2.335551575925586487e+00,-2.318404018660269017e+00,-2.155073165200147134e+00,-1.858881178360000330e+00,-1.285075146606082130e+00,2.641271836381859361e-01,1.677861364894414731e+00,3.735205625603430946e+00,4.444658244850948847e+00,4.343490052619671360e+00,7.626220048601215495e+00,1.058748499041450764e+01,1.317751100321738278e+01,1.485448846487066632e+01,1.546988794589966965e+01,1.627014472147860502e+01,1.603826167692371385e+01,1.638569948360069617e+01,1.762525422987712886e+01,1.835665359523205709e+01,1.856192308764473964e+01,2.016778337068349813e+01,2.279825544050166286e+01,2.278635515601466466e+01,2.124659687073877024e+01,1.884544898222068454e+01,1.692893253816023957e+01,1.655249184380121363e+01,1.636489504336857692e+01,1.749501746733593066e+01,1.684816276258167278e+01,1.633790752526077483e+01,1.464803142922828449e+01,1.370419148685027899e+01,1.251872110045425224e+01,1.068578001199230876e+01,8.379187699568776182e+00,5.158818325722182685e+00,3.698697196707642298e+00,2.503079278126244311e+00,2.051459325673236300e+00,1.476781239673193857e+00,5.704971184251366179e-01,3.543674189371474603e-01,-6.969933261278882242e-01,-1.280444794871757885e+00,-1.427295625454864547e+00,-1.611095744129040552e+00
-3.630301012904501246e+00,-3.731973928945536478e+00,-3.815660346378392909e+00,-3.911131017174428681e+00,-3.941624806904197253e+00,-4.209571064954957365e+00,-4.524213186795628339e+00,-4.740995056687489217e+00,-4.940494910735925949e+00,-5.125519596118007115e+00,-5.333780222745613919e+00,-5.461263510749961192e+00,-5.564157870150451046e+00,-5.707783040668540586e+00,-5.930923623801062305e+00,-6.101016806073628729e+00,-6.223190743571336725e+00,-6.322629798964462644e+00,-6.375612571353695301e+00,-6.481815519972725426e+00,-6.568038291737511969e+00,-6.615912090257388023e+00,-6.698279879974973205e+00,-6.706725438058373179e+00,-6.747931617584399966e+00,-6.831206095128451672e+00,-6.916025455620034457e+00,-6.984489529940384855e+00,-7.049278698350723182e+00,-7.084198136484850750e+00,-7.038593603620226347e+00,-7.050452232349289972e+00,-7.074072389519360904e+00,-7.067978674107450843e+00,-7.070935496304242562e+00,-7.030834147579599680e+00,-6.977310574453305492e+00,-6.974395243076766171e+00,-7.014299304328234896e+00,-7.046367592468606667e+00,-7.017325380396314038e+00,-6.952319264695936418e+00,-6.866483651064517524e+00,-6.752848453736185697e+00,-6.695216354845270779e+00,-6.649279840071556258e+00,-6.621384884735634913e+00,-6.556332100446579325e+00,-6.446816910416758972e+00,-6.337489825904730978e+00,-6.267600411250486836e+00,-6.260703814179402471e+00,-6.166986137461636375e+00,-6.003793570094594578e+00,-5.785225069108502538e+00,-5.538758288425442267e+00,-5.340927838198028965e+00,-5.167049583743348329e+00,-4.967103398904764155e+00,-4.798161586515378829e+00,-4.633804172393499066e+00,-4.422630918681885959e+00,-4.103958120425421185e+00,-3.830317048774218858e+00,-3.614208093259850152e+00,-3.375663909595416179e+00,-3.159097550982710612e+00,-2.764072977245837226e+00,-2.322405718843989497e+00,-2.031560254817619704e+00,-2.020987734418218551e+00,-2.022600691432989706e+00,-1.687962034738119899e+00,-9.112590049887053789e-01,8.090163814401254427e-01,2.133689707196809504e+00,4.695785144090998564e+00,6.574833143674283953e+00,7.114812234923984846e+00,9.620602705153704193e+00,1.140648199910941152e+01,1.273251037746736003e+01,1.303461563878854079e+01,1.304862635902454038e+01,1.390367725265847731e+01,1.549684379018028935e+01,1.739894846968336495e+01,1.743208267248904519e+01,1.760377843677484577e+01,1.813369578620521239e+01,1.977608951570574547e+01,2.322054123168886264e+01,2.421711302167195257e+01,2.300715738843432234e+01,1.998768817289704103e+01,1.676658211270412835e+01,1.553007854726968873e+01,1.623434337386458637e+01,1.801921307753769597e+01,1.681719135271292487e+01,1.625853491415420748e+01,1.508541257844740002e+01,1.401408843781382352e+01,1.379453363024270018e+01,1.264501707331736213e+01,1.054795697441902469e+01,7.245342791492822343e+00,4.487548100770911041e+00,3.317715043913992634e+00,2.095619824207701765e+00,1.077196144644340103e+00,3.507183387410857667e-01,-3.679624154080515241e-01,-9.034344278599332201e-01,-1.490893218836345513e+00,-1.825195848924381803e+00,-1.959410820099470207e+00
-3.757280793959156817e+00,-3.812618693175526818e+00,-3.888564156794195092e+00,-3.899870164209395362e+00,-3.872274018544795915e+00,-4.108332661282427800e+00,-4.375131417632148079e+00,-4.664637365704627392e+00,-4.928795126317842445e+00,-5.103029436825730514e+00,-5.276438885896555853e+00,-5.385854167875325338e+00,-5.487741914710773550e+00,-5.637155058646559525e+00,-5.822262722931335510e+00,-6.011246283558583592e+00,-6.181521794819957449e+00,-6.336043674778222723e+00,-6.463916396615045912e+00,-6.544131974890276204e+00,-6.589297513353100655e+00,-6.627376543378742824e+00,-6.669358724593612564e+00,-6.659359121871185394e+00,-6.684546845032116380e+00,-6.801823712463751725e+00,-6.922198082979647005e+00,-6.978444579391330116e+00,-7.019831651472879130e+00,-7.046723525841800395e+00,-7.037420389745800087e+00,-7.086274632625513270e+00,-7.129152500909621715e+00,-7.119770522157941706e+00,-7.144949743682997401e+00,-7.135692322816979960e+00,-7.090176646263096849e+00,-7.072677204172191701e+00,-7.083021252005706536e+00,-7.108924488842156997e+00,-7.093416274696826562e+00,-7.057191539730076180e+00,-6.989596534670179828e+00,-6.820686934910559884e+00,-6.692436944999072601e+00,-6.600435211744675179e+00,-6.512417957777758559e+00,-6.456779401943889773e+00,-6.392100310775100880e+00,-6.317794152469741853e+00,-6.275673954692118528e+00,-6.240979412597130072e+00,-6.142724994505985414e+00,-5.998327316813931276e+00,-5.814126782783229253e+00,-5.607692334285570013e+00,-5.417824524616171367e+00,-5.259744732411323120e+00,-5.121149723310489676e+00,-4.961107314625304632e+00,-4.765098704561957277e+00,-4.498519389538172319e+00,-4.143565092792376170e+00,-3.912627927877284861e+00,-3.752210577529664803e+00,-3.511299278155318060e+00,-3.251682061022327375e+00,-2.846240046624235465e+00,-2.465383535104062940e+00,-1.971026940869435418e+00,-1.529335781878857103e+00,-1.639313417353094993e+00,-1.488601120526007238e+00,-8.078473840848823251e-01,1.187745654708346699e+00,3.140586707547276646e+00,5.382127830245218014e+00,7.214268673921821140e+00,8.304178008264265998e+00,1.042533457147109210e+01,1.173571694964995515e+01,1.287759520227769627e+01,1.369972541172249336e+01,1.347248132636802787e+01,1.318989634969626579e+01,1.472443892459564729e+01,1.629665989433071971e+01,1.591972542086199560e+01,1.584265774881315281e+01,1.535362073140245798e+01,1.607244956877535813e+01,1.958828597067531518e+01,2.113443758806168304e+01,2.073783046270125396e+01,1.938855380973704357e+01,1.783371396141742693e+01,1.716368809771744353e+01,1.830468502459478231e+01,2.078235679010265002e+01,1.818966547886442697e+01,1.626423320244254000e+01,1.428273637090697257e+01,1.196338820810849946e+01,1.244633373033845913e+01,1.186157393459107290e+01,9.580175356932462805e+00,7.369259832828712220e+00,5.264576510710113233e+00,3.934975225938028842e+00,3.089938087737781114e+00,2.293478136630065389e+00,2.141992127626610731e-01,-1.113382314232358228e+00,-1.523008709037520392e+00,-1.896445036189246203e+00,-1.912373625513616116e+00,-1.947032101220447675e+00
-3.726833898543629342e+00,-3.779601343539412905e+00,-3.889772017533466908e+00,-3.867754691983457782e+00,-3.831693280738324603e+00,-4.100065433778340207e+00,-4.374270078329048239e+00,-4.671734267146653075e+00,-4.942394395777076177e+00,-5.138695927068411606e+00,-5.307857366804587862e+00,-5.396590197730407823e+00,-5.495206320512097342e+00,-5.635155011515206702e+00,-5.766503151798536564e+00,-5.944647427975319864e+00,-6.135596455347213762e+00,-6.312031754385300175e+00,-6.482110636377352186e+00,-6.590381767281197511e+00,-6.647425679740146087e+00,-6.658517613992931850e+00,-6.642879370163285557e+00,-6.648417335847206289e+00,-6.691235053326091808e+00,-6.779912330828399725e+00,-6.875123452242435818e+00,-6.945420896848896852e+00,-6.989123016702098568e+00,-7.003549579806916725e+00,-7.026418988111221786e+00,-7.072896532845038386e+00,-7.096031973918351277e+00,-7.098982979420841666e+00,-7.162065366133473887e+00,-7.179641020450795885e+00,-7.138135594038844012e+00,-7.109746826651660356e+00,-7.094623251096492389e+00,-7.103603669699221967e+00,-7.090295680817345847e+00,-7.053083022269135860e+00,-6.973085335912818650e+00,-6.814933820547470766e+00,-6.685012675304139229e+00,-6.583284970254335455e+00,-6.471838408423122857e+00,-6.395001444238967991e+00,-6.344703051481202394e+00,-6.291749000076625187e+00,-6.263243063230551577e+00,-6.203130806344683279e+00,-6.102684103635324320e+00,-5.941176675640368998e+00,-5.753042105580551180e+00,-5.585933383252791984e+00,-5.403525693971950261e+00,-5.224210455316458557e+00,-5.107266570937111894e+00,-4.959304178564106103e+00,-4.734977628057333909e+00,-4.503289662814911054e+00,-4.212816807355872051e+00,-3.921426756633196398e+00,-3.702274671097800951e+00,-3.522122078248494770e+00,-3.292387692253497811e+00,-2.819149539984687092e+00,-2.420929474245308466e+00,-2.004252864387654043e+00,-1.497949589647670887e+00,-1.452107089920511962e+00,-1.257698464231608693e+00,-8.099953447433164699e-01,1.110859647944703710e+00,3.371795645965029564e+00,4.903349110833473468e+00,6.345892981944366795e+00,7.665890619826836172e+00,1.028403692987890494e+01,1.209945240622261409e+01,1.266162179424548739e+01,1.360254422532879026e+01,1.475838740070486743e+01,1.495271294326074241e+01,1.572828326097669205e+01,1.624894890018356719e+01,1.529426330728290750e+01,1.480528108786674935e+01,1.490643602514148292e+01,1.635875265264250800e+01,1.869672964499361001e+01,1.940704449732974624e+01,1.873324314862438555e+01,1.796174325400482630e+01,1.828975130041193964e+01,1.841427508727438678e+01,1.940250664441987993e+01,2.195619558080972311e+01,1.851599212806246086e+01,1.575992028758892616e+01,1.386283262120338300e+01,1.116025299332544662e+01,1.171492946264304003e+01,1.106694429252059919e+01,8.100701398293814748e+00,6.488970738416266926e+00,5.157612183582931387e+00,3.767585521589147834e+00,3.006182213552270444e+00,2.207165231807968198e+00,-8.727765828585437591e-02,-1.311521000550929905e+00,-1.889052677228629351e+00,-2.255040375738581737e+00,-2.127399570026549114e+00,-2.171004654429074421e+00
-3.679136729359143931e+00,-3.793878166691347253e+00,-3.880735655957222363e+00,-3.795887910632078643e+00,-3.779299200654979263e+00,-4.063274723301775637e+00,-4.401011487164898206e+00,-4.734137727397360607e+00,-4.980097911911503417e+00,-5.159782365635013690e+00,-5.295291246390527284e+00,-5.431775055610526870e+00,-5.557731005504281008e+00,-5.681867423844500387e+00,-5.790024421934341525e+00,-5.940544455852616146e+00,-6.127003446683762178e+00,-6.250293568382385700e+00,-6.403728361747211828e+00,-6.572941895206898977e+00,-6.651526618289519632e+00,-6.655164870019673273e+00,-6.607674894809550281e+00,-6.627941947433485304e+00,-6.686573513046953465e+00,-6.758330727525804882e+00,-6.870218822410349091e+00,-6.936790925120692286e+00,-6.976724143457579075e+00,-6.971440268043571642e+00,-6.972731119626089047e+00,-6.998175693545030107e+00,-7.027260406959237038e+00,-7.041476120061144428e+00,-7.092181081539515652e+00,-7.138355358641750747e+00,-7.125212739228106607e+00,-7.089999608690686017e+00,-7.055655997779099131e+00,-7.064125800472811356e+00,-7.026452831820991562e+00,-6.962421383102420869e+00,-6.884587085591933331e+00,-6.761853083542025189e+00,-6.667531140124133948e+00,-6.563629797190054127e+00,-6.448201639353109194e+00,-6.372423824883385990e+00,-6.320474301894482672e+00,-6.281268518384479194e+00,-6.268169411324157281e+00,-6.167671399278120248e+00,-6.052302148056913467e+00,-5.906577468393577668e+00,-5.722161558713854568e+00,-5.531140678989284964e+00,-5.314130928129967124e+00,-5.148724432900070092e+00,-5.042139062555150986e+00,-4.852444874341010461e+00,-4.593557273418105602e+00,-4.410989999982041887e+00,-4.193907108829072250e+00,-3.851140061842335705e+00,-3.541661382795409985e+00,-3.380356259389237561e+00,-3.264003305917223763e+00,-2.861206026287531401e+00,-2.462089132613722420e+00,-2.127817679622619362e+00,-1.687366450898474257e+00,-1.428736210407371088e+00,-9.691288121624218599e-01,-4.895897391455025227e-01,9.868734319152022705e-01,2.605346656732486998e+00,4.394147328089253790e+00,6.102129046254866296e+00,7.156856902559499467e+00,9.473971642953642913e+00,1.157978696410437180e+01,1.330584303390009104e+01,1.452417426824683133e+01,1.613663947296116064e+01,1.715359346815757746e+01,1.727521968516485273e+01,1.698968534105802775e+01,1.553460958937891689e+01,1.505508529811499052e+01,1.655452776478326271e+01,1.846402123027417375e+01,1.894542823793603503e+01,1.919946827284229585e+01,1.893998438266089224e+01,1.855824304756378140e+01,1.932326717582948206e+01,1.917043009455538183e+01,2.012046914438806056e+01,2.204805059116199573e+01,1.803160203109292681e+01,1.532086451103127800e+01,1.438247308429399673e+01,1.249613508556667796e+01,1.194844430349121644e+01,1.088689292546356135e+01,7.810322656908136985e+00,5.378558413934173998e+00,4.461800829708928440e+00,3.560947784653982318e+00,2.466903468151946388e+00,1.475489754562504086e+00,-7.222269151438504009e-01,-1.527020620396358774e+00,-2.041015245383063004e+00,-2.331564473240002933e+00,-2.253992905890470411e+00,-2.327068260092449048e+00
-3.581919292305661529e+00,-3.711687375793032206e+00,-3.727267410018518135e+00,-3.652302257026982968e+00,-3.734209074878942936e+00,-4.044830627880487306e+00,-4.454790277515291663e+00,-4.821145804313813343e+00,-5.042098067000375217e+00,-5.187830040132418219e+00,-5.273114881653822472e+00,-5.434469780511321346e+00,-5.565712698018209004e+00,-5.732882443109204473e+00,-5.874168967841140621e+00,-5.924017459566837118e+00,-6.035768603893767015e+00,-6.145107624690480108e+00,-6.320246667617591463e+00,-6.537700993710521047e+00,-6.624546306923261518e+00,-6.671216375987832237e+00,-6.642643388401137550e+00,-6.638758539507874090e+00,-6.674485738366375820e+00,-6.729692419840853645e+00,-6.858822114660944713e+00,-6.904078644922194918e+00,-6.922762630673143569e+00,-6.948450895469338029e+00,-6.978660816002546063e+00,-6.962003776913370245e+00,-6.976364926574881054e+00,-6.985470967759423111e+00,-7.007104190620489170e+00,-7.064132895956912073e+00,-7.061280163179335823e+00,-7.009232692949394661e+00,-6.945275218504139758e+00,-6.961149855432465117e+00,-6.906078022198983035e+00,-6.840174591930907155e+00,-6.790708575139921876e+00,-6.696485990053264281e+00,-6.630373432702407754e+00,-6.589430317207902732e+00,-6.536829079404217424e+00,-6.413298008467974043e+00,-6.309282366044420165e+00,-6.226758233573435497e+00,-6.171392245139254662e+00,-6.064535313931108895e+00,-5.969734309901992830e+00,-5.846709394954804573e+00,-5.672879907290465873e+00,-5.479947166916483425e+00,-5.251663317436697120e+00,-5.022352026359749644e+00,-4.843491996032802227e+00,-4.679242149232318404e+00,-4.458631498505212676e+00,-4.221912434369651912e+00,-3.963964020390133403e+00,-3.672572237821511987e+00,-3.391518925762737169e+00,-3.122001735360959707e+00,-2.990376993036323761e+00,-2.773469581063388922e+00,-2.514280364716041216e+00,-2.217205530162642546e+00,-1.774104318306618300e+00,-1.559570011538681689e+00,-1.231392083510068236e+00,-2.071566033424069031e-01,1.900871006106295447e+00,3.180741129399440759e+00,5.513249323604283880e+00,7.607086898199471925e+00,8.451707121215079610e+00,1.052987555068282433e+01,1.296752709689438454e+01,1.434849769295563604e+01,1.426382161212385746e+01,1.609006621207249310e+01,1.770528429411428206e+01,1.832758857183994294e+01,1.839551546656845105e+01,1.710118188529919436e+01,1.730705554621460251e+01,1.919113468755690377e+01,2.046822936686404404e+01,1.998795658025468214e+01,2.073220573670702649e+01,2.060476726629662991e+01,2.033210880733302872e+01,2.081832906767871805e+01,1.965211492156511852e+01,1.863782539003233651e+01,1.799638830224785124e+01,1.526093159904773877e+01,1.430111624635146761e+01,1.449822742231977202e+01,1.363306265212489876e+01,1.270456617359640106e+01,1.195080829101501330e+01,8.765068559659408010e+00,5.506859928027340700e+00,3.189310042363878495e+00,1.248059541691280971e+00,3.103614615119715779e-03,-1.051791080334225637e+00,-1.580715411943453663e+00,-1.979187580928015944e+00,-2.244108483240927487e+00,-2.315082007324363644e+00,-2.349322056166595729e+00,-2.512599487118879260e+00
-3.381880922017671764e+00,-3.577346586004205520e+00,-3.650625182071846719e+00,-3.603841391815607587e+00,-3.735576342646830028e+00,-4.049225082475147452e+00,-4.401338991334220907e+00,-4.739093612244939635e+00,-4.976858469482766445e+00,-5.114197179521966952e+00,-5.209917492079211065e+00,-5.423431527410860653e+00,-5.615104708859395721e+00,-5.812167044767661217e+00,-5.960884950835196427e+00,-6.010808436620187933e+00,-6.089175960665804688e+00,-6.165648044239689263e+00,-6.292890649061619435e+00,-6.452418414816708747e+00,-6.503008582505970026e+00,-6.545934348429644167e+00,-6.559939366773605229e+00,-6.569848767249654387e+00,-6.624111645563713680e+00,-6.713006879916743941e+00,-6.827768516277607169e+00,-6.884004073039521110e+00,-6.915482064914128202e+00,-6.959061273528260649e+00,-6.991058943199484510e+00,-6.959015663916915173e+00,-6.962085758870821373e+00,-6.991560905128558545e+00,-7.009472881696255264e+00,-7.001762360561863296e+00,-6.976777266571865255e+00,-6.918216685837251134e+00,-6.826917423787199901e+00,-6.848427006418358332e+00,-6.822644407845722903e+00,-6.788047497066493463e+00,-6.770061777635628886e+00,-6.703330346607515366e+00,-6.663050086383558224e+00,-6.643471864206849986e+00,-6.609610884831503164e+00,-6.429588434430888455e+00,-6.284068498691029347e+00,-6.155349929036069589e+00,-6.057593790097735464e+00,-5.977715042024870584e+00,-5.868089226452170237e+00,-5.693678910552101513e+00,-5.505130070289219191e+00,-5.335913086506366199e+00,-5.112475961607292341e+00,-4.866112759283072187e+00,-4.642119281684606413e+00,-4.503876066585297266e+00,-4.349116065945204390e+00,-4.044675489582586714e+00,-3.671095843041911166e+00,-3.373838970316889174e+00,-3.126735499205088420e+00,-2.908190566375710606e+00,-2.788014126462398323e+00,-2.626209143052173900e+00,-2.476625841502677616e+00,-2.261328753973729011e+00,-1.906833187259409979e+00,-1.508056691761485046e+00,-8.141984611445249875e-01,1.323444168716575220e+00,4.317336949078320885e+00,5.932041260744298050e+00,8.435103743012627220e+00,1.058638735858850133e+01,1.191826836232472253e+01,1.400764020597526915e+01,1.527240500501131137e+01,1.476515715386740801e+01,1.318269487481531854e+01,1.443466081210608465e+01,1.594736096473011244e+01,1.845818610069376575e+01,2.099012237207213971e+01,2.011149256762686832e+01,1.996652592249226288e+01,2.103452624583423614e+01,2.128749467294633391e+01,1.974135961819905560e+01,1.980672295816014739e+01,2.012006123657207013e+01,1.976257218132055371e+01,1.920002764078867585e+01,1.819770734390035472e+01,1.600854413441814117e+01,1.370284280196205806e+01,1.344094522525347202e+01,1.413873047680439932e+01,1.506381513609673384e+01,1.529217322485812680e+01,1.381660942858397867e+01,1.256977209479174640e+01,9.099786143487087031e+00,5.565390680057189066e+00,2.602184931800663570e+00,1.724220832748040166e-01,-1.241079442127828392e+00,-1.735243714346352384e+00,-2.091191595842294859e+00,-2.416703757472142833e+00,-2.551905699126783666e+00,-2.577261641014509053e+00,-2.661405892934573636e+00,-2.851549428976946299e+00
-3.365360435737021483e+00,-3.569970875541695676e+00,-3.651443909833136381e+00,-3.553422705305542273e+00,-3.657166329983432718e+00,-3.998991974869263277e+00,-4.313766316396832501e+00,-4.597175540240309388e+00,-4.829516299115135247e+00,-5.011437036611619433e+00,-5.167989171196869513e+00,-5.409406880001574436e+00,-5.638273043511589755e+00,-5.843741218210148247e+00,-5.979575302894137856e+00,-6.045630756628919578e+00,-6.107105534959377913e+00,-6.147283048266221073e+00,-6.223047852531450985e+00,-6.349638472644454801e+00,-6.388020259581677962e+00,-6.419263589057245589e+00,-6.469531852553432216e+00,-6.509115938263004608e+00,-6.597481710326905890e+00,-6.706364577066952215e+00,-6.793078591653296527e+00,-6.856142235964774123e+00,-6.896271346898922516e+00,-6.926058692880018519e+00,-6.928280410925637511e+00,-6.911636240138298248e+00,-6.934513022937348836e+00,-6.955566174165745963e+00,-6.940876322388971786e+00,-6.882974047009636109e+00,-6.850928214580240372e+00,-6.815892211997443439e+00,-6.727203951292501038e+00,-6.760226093026921568e+00,-6.770320551552953425e+00,-6.722200882311138770e+00,-6.690376702146503263e+00,-6.637892270067715650e+00,-6.610125300789689184e+00,-6.613683538092491432e+00,-6.600043355556379332e+00,-6.394032136106121200e+00,-6.238977646095943186e+00,-6.096271360544400331e+00,-5.989215705233347897e+00,-5.904729484064809242e+00,-5.746289399784139107e+00,-5.564595081423223455e+00,-5.410014849704419149e+00,-5.233548089536180115e+00,-4.980939633214353179e+00,-4.770390381711095529e+00,-4.557334398385134655e+00,-4.372093290472897742e+00,-4.207311820861604268e+00,-3.954336204767746832e+00,-3.602037162339667642e+00,-3.234745610360796331e+00,-2.947597405508975310e+00,-2.772319486863347393e+00,-2.645925266837072520e+00,-2.543930172286187563e+00,-2.507597744982561494e+00,-2.336366766359903036e+00,-2.019174959251713197e+00,-1.446268964189413975e+00,1.271036217901539978e-01,2.750264115925026509e+00,5.964901390350266119e+00,7.514312551049822098e+00,9.707936854747622135e+00,1.183551458609149343e+01,1.367086085598575806e+01,1.556607648001427968e+01,1.542656326582405946e+01,1.468700504840522392e+01,1.326486552443965472e+01,1.450539286273109418e+01,1.649503731073091117e+01,1.840108514871446488e+01,2.081898424382223922e+01,2.114766321167443408e+01,2.139633534528633518e+01,2.207342779017771051e+01,2.174799660901341269e+01,1.999096302030022443e+01,2.023598077759697134e+01,2.109381543884131460e+01,2.074544243853880587e+01,1.880603065173052002e+01,1.763042553891569497e+01,1.597282643821889181e+01,1.365314017061068519e+01,1.407060992281413014e+01,1.472530753098849488e+01,1.584333538497704730e+01,1.664031868725243868e+01,1.421950043661922969e+01,1.210954993578095085e+01,8.527857607056571254e+00,4.900917611112025618e+00,2.519575985194317802e+00,2.803172254668620522e-01,-1.436128777776160215e+00,-1.981246236834369068e+00,-2.250013511086302209e+00,-2.526734227445277536e+00,-2.673950738074581945e+00,-2.761788420106315201e+00,-2.822042733168310225e+00,-2.980124255563354474e+00
-3.346553154106079120e+00,-3.498703857927751848e+00,-3.590895556795961507e+00,-3.576103916295495733e+00,-3.654824732065044657e+00,-3.971844699141144019e+00,-4.281804446205069503e+00,-4.493537729956716298e+00,-4.698793377604751242e+00,-4.944425981933613379e+00,-5.183369352351378190e+00,-5.431704371535353459e+00,-5.612046066585212323e+00,-5.794671127782651254e+00,-5.911777719590122437e+00,-6.004059108600750427e+00,-6.089059207668492846e+00,-6.126238189969009262e+00,-6.185725793023243213e+00,-6.261370409745030230e+00,-6.302827010148872589e+00,-6.374419312285114714e+00,-6.458720339222938200e+00,-6.507105402769666647e+00,-6.590373254103080392e+00,-6.671290955983119275e+00,-6.743451450176674911e+00,-6.818900364228414723e+00,-6.838246935750246891e+00,-6.870071594785891023e+00,-6.886384376560781284e+00,-6.887598202072170217e+00,-6.917681757053305347e+00,-6.913283589774676052e+00,-6.863443444299250018e+00,-6.801861951095332870e+00,-6.784530848640238254e+00,-6.744549930104772884e+00,-6.687957797756542533e+00,-6.721850570178188988e+00,-6.721090308254488832e+00,-6.678793726405806375e+00,-6.612372628652386730e+00,-6.561636245179145455e+00,-6.547280367010904989e+00,-6.532089728571485843e+00,-6.507390230464411118e+00,-6.303007443422018241e+00,-6.128693115075744657e+00,-5.991061833532286052e+00,-5.917719391701975695e+00,-5.817321909121511148e+00,-5.670126394769909872e+00,-5.507255830729772761e+00,-5.333129471014834699e+00,-5.137260159914208479e+00,-4.914820202623533696e+00,-4.720305173302099533e+00,-4.531733575048686014e+00,-4.390903358242091770e+00,-4.202500513517525960e+00,-3.942548351296188525e+00,-3.565972829557806811e+00,-3.211741465673726648e+00,-2.915809412266942235e+00,-2.688815279810117254e+00,-2.573166602933183000e+00,-2.491788489733449463e+00,-2.394656046020307461e+00,-2.142341733057468556e+00,-1.769436829718287640e+00,-1.032880229852553455e+00,7.806684062676918501e-01,3.329143022206364488e+00,6.036178912892309789e+00,7.182175885755281541e+00,9.381975427983528348e+00,1.195249977862008706e+01,1.440309063846091142e+01,1.587590984573109942e+01,1.593884089629680112e+01,1.571152549354682648e+01,1.440423510861956657e+01,1.543073576816532189e+01,1.730076781630370419e+01,1.883835394645208439e+01,2.090618853545259626e+01,2.195730245100336475e+01,2.269261998641993472e+01,2.251679309732015710e+01,2.165617923731697658e+01,2.030631736915496788e+01,1.963253573623654447e+01,2.032079495979582973e+01,2.171602115052813176e+01,2.001329527254999974e+01,1.818500846988299102e+01,1.646053865411267836e+01,1.473415689568648546e+01,1.536920397051606280e+01,1.528407037170858906e+01,1.529203829801286219e+01,1.534472092433980883e+01,1.319404184466287866e+01,1.163229696229173804e+01,8.057165771756476857e+00,4.829964218846523494e+00,2.573551105049618926e+00,2.425916622207478224e-01,-1.319534142780063535e+00,-2.035164212791483518e+00,-2.351854139352301143e+00,-2.540016685620580805e+00,-2.730180028608492293e+00,-2.885868303140988633e+00,-2.983153246054788710e+00,-3.129796315698795794e+00
-3.398378856412926474e+00,-3.460075320101521079e+00,-3.528475207426240878e+00,-3.584201529999738067e+00,-3.624783323525681222e+00,-3.951121018364017523e+00,-4.285449067767376441e+00,-4.472487557580928197e+00,-4.694033051909872967e+00,-4.897378052892197076e+00,-5.121904022299849757e+00,-5.400370360644718204e+00,-5.552507372740971725e+00,-5.671751174859777755e+00,-5.730258597249447305e+00,-5.888227139313700675e+00,-6.034105595050059279e+00,-6.102039143424741852e+00,-6.178265294200931734e+00,-6.216818495760722207e+00,-6.275987460817323615e+00,-6.384608944797625085e+00,-6.499168883494336413e+00,-6.545421971780796433e+00,-6.612712597241762857e+00,-6.659607412054593389e+00,-6.711226861260989551e+00,-6.818197739776631572e+00,-6.835633171292872845e+00,-6.831680438416822376e+00,-6.824593135632172292e+00,-6.828723744352035219e+00,-6.851126956580591454e+00,-6.875161559717813731e+00,-6.844173626304437263e+00,-6.766827353919186550e+00,-6.751962653890995369e+00,-6.750879372823976432e+00,-6.770782042243084220e+00,-6.793894518545544159e+00,-6.771254300397660408e+00,-6.718697317789763090e+00,-6.601318199920252816e+00,-6.491742884785454137e+00,-6.429370355611219168e+00,-6.379683828210971797e+00,-6.328068438798052142e+00,-6.185635846552584027e+00,-6.055081628757365664e+00,-5.949196112499247846e+00,-5.936719130302729575e+00,-5.832542041253973686e+00,-5.710351014585213214e+00,-5.580277257893206944e+00,-5.401662112217822553e+00,-5.177154354656233082e+00,-4.975903848690204079e+00,-4.757243529911795221e+00,-4.549320296049566004e+00,-4.470742612804630589e+00,-4.279428009134679023e+00,-4.020920704427442871e+00,-3.633057013912983635e+00,-3.234882370778454863e+00,-2.858156978398441073e+00,-2.631137413013171500e+00,-2.585791543309508000e+00,-2.479977116994436237e+00,-2.267936937152553956e+00,-1.785684114796415978e+00,-1.076085067907933457e+00,8.008503817245706813e-01,2.649277957131222383e+00,3.818002202462487560e+00,4.593084128957952039e+00,5.234236639488146992e+00,7.267726095760727034e+00,9.272059508716544940e+00,1.127529085116174201e+01,1.404233378007947941e+01,1.613621300117851121e+01,1.717580909690571289e+01,1.672353248692485650e+01,1.597745311812134972e+01,1.615000045937500417e+01,1.793287776516880072e+01,2.028624853694672225e+01,2.212011888624069300e+01,2.341095497750907128e+01,2.272558633636924696e+01,2.167907716110597249e+01,2.061521690160247999e+01,1.890647318565909529e+01,1.857124579374729123e+01,2.080797329197897483e+01,2.083324544161140324e+01,1.979513192004011302e+01,1.842817724412311620e+01,1.773081674269023367e+01,1.763886888814933229e+01,1.583625777496366993e+01,1.403389377334073629e+01,1.268014208966275191e+01,1.010355254679699577e+01,8.411436565134239984e+00,5.540278197560014384e+00,3.337102867881088564e+00,2.389986675299717422e+00,7.889419481020684133e-01,-8.629261673727534054e-01,-1.884854177695082234e+00,-2.381626513567836501e+00,-2.582498445977076784e+00,-2.771220340508066204e+00,-2.953387782140808326e+00,-3.083647099348192810e+00,-3.219534518908985898e+00
-3.262164832033166206e+00,-3.258495201650822626e+00,-3.240456801620391847e+00,-3.375889282982527106e+00,-3.536461798967975856e+00,-3.982696660262512456e+00,-4.390006795478178070e+00,-4.540555509190070893e+00,-4.679146321190929214e+00,-4.792438909804918268e+00,-4.960441926766904430e+00,-5.263262331862716970e+00,-5.427192269767874500e+00,-5.556882574599916857e+00,-5.660179287870103160e+00,-5.805495110296634564e+00,-5.950570022365164746e+00,-6.046163674613858063e+00,-6.143613762862848660e+00,-6.264652545504144854e+00,-6.371273562247115052e+00,-6.446669350997177972e+00,-6.527268941528779678e+00,-6.567191208885662768e+00,-6.613560084820570673e+00,-6.616961457149933779e+00,-6.635636060896789701e+00,-6.774450732317502499e+00,-6.856374730313952170e+00,-6.855747733542622235e+00,-6.836222447816784786e+00,-6.790868803552844390e+00,-6.748199254323994367e+00,-6.741585809711008181e+00,-6.698298290631851337e+00,-6.672538658841736137e+00,-6.681203969595544301e+00,-6.707968096640804845e+00,-6.754228792556869365e+00,-6.719487681718523397e+00,-6.659418901923739753e+00,-6.607048954092332949e+00,-6.494937409245059357e+00,-6.371753757982236088e+00,-6.299652266805277456e+00,-6.279530884207456864e+00,-6.262717613040210907e+00,-6.159844866391496865e+00,-6.044990565348027367e+00,-5.952556800899106548e+00,-5.932279276326828388e+00,-5.825623296363297676e+00,-5.699927647148937737e+00,-5.551283337081062363e+00,-5.360261791143906329e+00,-5.144675023037829753e+00,-4.928846591840667202e+00,-4.726275993189606339e+00,-4.562996289379296577e+00,-4.453314465345540540e+00,-4.211253075949828784e+00,-3.999657627047429997e+00,-3.697681783241955511e+00,-3.191326261147416687e+00,-2.784233175025659257e+00,-2.526242529091620614e+00,-2.412361875786432908e+00,-2.294853441742476186e+00,-2.055961747798906281e+00,-1.511115691482211698e+00,3.174274118729346617e-01,3.210176420941133646e+00,5.251922422911937893e+00,5.540165902911939888e+00,5.213971760508076869e+00,5.801034646994300381e+00,7.046800479042175880e+00,7.989948474902173636e+00,9.241984970267781208e+00,1.188210720433279199e+01,1.420076181951869643e+01,1.584915296062622225e+01,1.564140652811496501e+01,1.480507503132398561e+01,1.559157889846373557e+01,1.741780735450695516e+01,2.003141960288308354e+01,2.201733228411665522e+01,2.316272747571407109e+01,2.244782831509214205e+01,2.157987940810805938e+01,2.254304612109044115e+01,2.276630653590872555e+01,2.227620848568724909e+01,2.400813784080046531e+01,2.370383094857145423e+01,2.200059699261613844e+01,2.053963272478966573e+01,1.874389376142989505e+01,1.761180958418079001e+01,1.576746891656499550e+01,1.352323538838587424e+01,1.215127123248471719e+01,9.995576692179035661e+00,8.011235060390697882e+00,4.558368363436382076e+00,2.509571546031878597e+00,1.351498432007557815e+00,-3.031248243621528227e-01,-1.289940725833852886e+00,-2.031149156342764162e+00,-2.451386448184143418e+00,-2.668400390718467907e+00,-2.901268324646523844e+00,-3.169165055129529840e+00,-3.229507887609196271e+00,-3.281111458944161452e+00
-3.037000058895886756e+00,-3.084876415308159370e+00,-3.093230895107646372e+00,-3.287681863947539807e+00,-3.546994130755539931e+00,-3.994558547597518938e+00,-4.377255767541612386e+00,-4.528378645290258575e+00,-4.617996399643506500e+00,-4.701280748439113921e+00,-4.869278496351306273e+00,-5.191893657468578560e+00,-5.364558335953829804e+00,-5.482079664396711571e+00,-5.609594016792982529e+00,-5.730632109162564269e+00,-5.864095829172837782e+00,-5.996523008951430533e+00,-6.123683053017672684e+00,-6.261765225230852216e+00,-6.352113410786496495e+00,-6.424877796072704150e+00,-6.501273949975486133e+00,-6.512952085004989122e+00,-6.516539911858764356e+00,-6.548046115484722485e+00,-6.604975509516692433e+00,-6.706958410270196680e+00,-6.786783082315756666e+00,-6.812994449317482548e+00,-6.804310448935706468e+00,-6.753216900965943736e+00,-6.689082514415348513e+00,-6.653987041354188392e+00,-6.601300732773189850e+00,-6.610524993502033375e+00,-6.624906559051828125e+00,-6.630352574275615751e+00,-6.654236339420360302e+00,-6.607346721994567851e+00,-6.556272257190995489e+00,-6.483418216262066380e+00,-6.355389739263338278e+00,-6.267459383269148532e+00,-6.235786973425750723e+00,-6.201056075923117028e+00,-6.174552660681202454e+00,-6.108208717763406348e+00,-6.005278963953700533e+00,-5.911353227205100147e+00,-5.868390456407317934e+00,-5.738746993562465093e+00,-5.587795287331259964e+00,-5.418648203171137823e+00,-5.212402837690051527e+00,-5.037170340376765587e+00,-4.840088273140488617e+00,-4.635434437327341506e+00,-4.498114800938361135e+00,-4.397376155411540921e+00,-4.145985217601667827e+00,-3.882818554763560748e+00,-3.551383849990951802e+00,-2.994412988998099490e+00,-2.644392376166985414e+00,-2.374618144833325672e+00,-2.211443805360551185e+00,-2.027890070115205834e+00,-1.682984698078841657e+00,-1.099611014845612855e+00,2.109373001235085976e+00,5.147073741438113359e+00,6.410948633540192176e+00,6.694664547737743554e+00,6.202487442284949637e+00,6.382537168210614453e+00,6.474619960908734484e+00,7.983173700118977756e+00,1.022267251857094728e+01,1.284203765202409109e+01,1.544758602774935419e+01,1.707221587450387901e+01,1.640848905481914599e+01,1.580141016624534167e+01,1.757323163571298252e+01,1.906593323042759280e+01,2.155997566943649346e+01,2.278620474471889068e+01,2.284687984663323590e+01,2.285377442557225081e+01,2.291063715154930946e+01,2.372235613896075535e+01,2.371685775305475374e+01,2.366926071397314502e+01,2.543193830369299846e+01,2.511065286989067857e+01,2.305984240260659845e+01,2.110459908955609976e+01,1.782005769428197084e+01,1.576839882889414746e+01,1.400760847140080045e+01,1.224480060649548463e+01,1.171962561434363082e+01,1.004174010825086327e+01,7.822173285716603530e+00,3.909787574788583076e+00,2.087997703485513945e+00,5.987240505912204691e-01,-1.003775399939976998e+00,-1.637456243932385647e+00,-2.213127225752040683e+00,-2.558301956574848823e+00,-2.787270151583399524e+00,-2.972716599654392944e+00,-3.245187794138383097e+00,-3.382781410725852034e+00,-3.490665782281307195e+00
-2.937168846708749115e+00,-3.073680592170836334e+00,-3.153638848001427686e+00,-3.304652999583026940e+00,-3.483627389353257886e+00,-3.886325968186437052e+00,-4.251708322458132017e+00,-4.450079992213801461e+00,-4.589849999820192039e+00,-4.660321572543522528e+00,-4.801709234427728568e+00,-5.109029220183640696e+00,-5.297311703934227900e+00,-5.450880373835114590e+00,-5.588030339914452860e+00,-5.666117664144616484e+00,-5.761109383826419794e+00,-5.915885279877139524e+00,-6.086939840606992114e+00,-6.224719222994047563e+00,-6.289210443613093560e+00,-6.356469565953821288e+00,-6.387873075537102707e+00,-6.380835523069702475e+00,-6.416051115587072751e+00,-6.473551224715841990e+00,-6.544032235613627790e+00,-6.642917774249919916e+00,-6.719817066370342928e+00,-6.735166967099269542e+00,-6.716861140021886278e+00,-6.661983529100507617e+00,-6.608361104100715089e+00,-6.607818594496831288e+00,-6.589125515397608268e+00,-6.568422302352035835e+00,-6.556207700894656654e+00,-6.546784917284629302e+00,-6.543572176878783786e+00,-6.512768259340921517e+00,-6.466493116780039685e+00,-6.389352952250918705e+00,-6.263677011551920693e+00,-6.181540703584429863e+00,-6.163252552374972382e+00,-6.146099082719075568e+00,-6.116950754628047271e+00,-6.034353582849754538e+00,-5.946557015825862713e+00,-5.851161219156775672e+00,-5.737474879551580642e+00,-5.586674344448950613e+00,-5.424985790742499425e+00,-5.269950864480967390e+00,-5.089980186788057637e+00,-4.904957004650356112e+00,-4.727936654462624233e+00,-4.510098674007000596e+00,-4.293874975523609194e+00,-4.181758854516424151e+00,-3.968186468307839831e+00,-3.664404771117029558e+00,-3.360962992561546958e+00,-2.857498013119891045e+00,-2.429412513420095898e+00,-2.068058811342743386e+00,-1.886165496617536075e+00,-1.728722040143335859e+00,-1.457242057772314858e+00,-8.256426661764620922e-01,2.501533893704564804e+00,5.756707501203622179e+00,7.681111135046135630e+00,8.555832980076544914e+00,7.672037851450586921e+00,7.199975054100563376e+00,7.449768242787872197e+00,9.147135260235831566e+00,1.273935750968281155e+01,1.598285521428216782e+01,1.833015144073339542e+01,1.858251697597854957e+01,1.753754298283635649e+01,1.813914336192974375e+01,1.919953828230704929e+01,2.048277866767351441e+01,2.310417708631647571e+01,2.265869984412381655e+01,2.136495350490901401e+01,2.271640060194667754e+01,2.418604871275665147e+01,2.460784964549255349e+01,2.444566946025724974e+01,2.430886436096497860e+01,2.471302830929842997e+01,2.455971951335355996e+01,2.292062109349564025e+01,2.032961366180985863e+01,1.661870995107014082e+01,1.460088266366527598e+01,1.293361838026861754e+01,1.128552333324079626e+01,1.160508468386530723e+01,9.741160519231570447e+00,6.939497997759457526e+00,3.301169455545555298e+00,1.114908111769746579e+00,-3.526132517212949291e-01,-1.205709818622526130e+00,-1.842646630230543314e+00,-2.388226252704122032e+00,-2.716030789982401217e+00,-2.960985830765618054e+00,-3.113806449942873478e+00,-3.316475407057246194e+00,-3.486086757054819518e+00,-3.644395734309725743e+00
-2.932026232509982400e+00,-3.101020813058261716e+00,-3.198766748268936588e+00,-3.325343670786411909e+00,-3.439686241967927494e+00,-3.720012698742324098e+00,-4.003530547769805992e+00,-4.263537240681702478e+00,-4.464085111071521617e+00,-4.643358162057026561e+00,-4.871723744235645803e+00,-5.124318501121189584e+00,-5.294702605270057205e+00,-5.413528111938179066e+00,-5.492345820974094295e+00,-5.548597386659615438e+00,-5.625522056146986749e+00,-5.764120170653288966e+00,-5.943464307791596291e+00,-6.146136546760442521e+00,-6.246381441551767111e+00,-6.292301975759875710e+00,-6.261821486006492243e+00,-6.224587647203035701e+00,-6.282263092596438447e+00,-6.374720129452436268e+00,-6.467053707139853280e+00,-6.552325497091159079e+00,-6.615949193107432791e+00,-6.609217903324621446e+00,-6.569771226096760230e+00,-6.539299135523887863e+00,-6.525151783854398424e+00,-6.559508268504432138e+00,-6.574780548373107436e+00,-6.571640029348316148e+00,-6.580339806717973694e+00,-6.534656367389895415e+00,-6.482308195317519228e+00,-6.453944401919486040e+00,-6.398445898211709171e+00,-6.363291779983077490e+00,-6.288054929999803200e+00,-6.166500579128275206e+00,-6.114800232761304244e+00,-6.065188058966913154e+00,-5.982113761046994327e+00,-5.884998829980164992e+00,-5.815174115651037035e+00,-5.725903513210332640e+00,-5.546031940164035667e+00,-5.419880999877963568e+00,-5.296336274956267687e+00,-5.127916801325752338e+00,-4.945502046944306507e+00,-4.694034119635093205e+00,-4.477571677728445998e+00,-4.295283320316845455e+00,-4.047569331914566249e+00,-3.854926805291421843e+00,-3.606800743747508253e+00,-3.285195530458202118e+00,-3.049713066567117270e+00,-2.622073944544569102e+00,-2.124318473465682811e+00,-1.805315281439925368e+00,-1.792146024054669162e+00,-1.633297018948084434e+00,-1.426084089461643778e+00,-8.340782969071369735e-01,2.207350107673072159e+00,5.777173168928713132e+00,8.593303617912177117e+00,1.037850804181930009e+01,9.364732900822353656e+00,8.584205650182481051e+00,9.399384341803207477e+00,1.103596157685048595e+01,1.579759598854219149e+01,1.908679281881987322e+01,2.050477070013126379e+01,2.064493584526546854e+01,2.051883654705449445e+01,2.174947076126067813e+01,2.140938289385290361e+01,2.143891867121317674e+01,2.311998503264348415e+01,2.286025050799951330e+01,2.206028955214050313e+01,2.266521108671372176e+01,2.342570639354837425e+01,2.384890354128599554e+01,2.393146512511836477e+01,2.302614095899535229e+01,2.141705317938825814e+01,2.217479213628148571e+01,2.170679308906651883e+01,1.996568179404688692e+01,1.722468012276943838e+01,1.444167843319047329e+01,1.211504986306963261e+01,1.030585408531129588e+01,1.118132841453905080e+01,1.001358126529700243e+01,7.418983253616656448e+00,3.781507759145617431e+00,9.977332313333906466e-01,-1.038597791096316891e+00,-1.688665536219203567e+00,-2.114138767746287062e+00,-2.505581386048709280e+00,-2.765108695468468269e+00,-2.978515626922877857e+00,-3.244942430613714457e+00,-3.508767114408845700e+00,-3.653415944355840494e+00,-3.808403006690519899e+00
-2.794973815487282742e+00,-2.982425326486635608e+00,-3.092163530372776137e+00,-3.195439481392133629e+00,-3.313945818925367881e+00,-3.508631340711789282e+00,-3.658014199800016186e+00,-3.996375364146851794e+00,-4.269987492198088930e+00,-4.497562264361282480e+00,-4.788560496739958872e+00,-4.992017844665358695e+00,-5.148123263127406979e+00,-5.274662007479645531e+00,-5.335564800829409648e+00,-5.388866809347806708e+00,-5.494342249619056595e+00,-5.619421094094877667e+00,-5.749536236714599013e+00,-5.956644243187449561e+00,-6.076145859207922939e+00,-6.126056059540363030e+00,-6.128258332680091236e+00,-6.153878858038349442e+00,-6.221945729865287156e+00,-6.354802143440012152e+00,-6.495843585161106937e+00,-6.543946079066895294e+00,-6.589135998599203070e+00,-6.558102177964218349e+00,-6.478037752001433169e+00,-6.480569433741402818e+00,-6.501095582716041044e+00,-6.480425222410057806e+00,-6.459409021420439601e+00,-6.475318792972604598e+00,-6.475235349360360715e+00,-6.448086047133639198e+00,-6.400286425416505054e+00,-6.402882391012617802e+00,-6.401180808493561969e+00,-6.374082762848122030e+00,-6.326916373999187826e+00,-6.207084696304159266e+00,-6.100449828039421263e+00,-5.970360370183778187e+00,-5.848389219858173504e+00,-5.757158027254526189e+00,-5.659856140408324521e+00,-5.574132504597173465e+00,-5.425997950200569520e+00,-5.289960567093260124e+00,-5.143436106083290049e+00,-4.956388546193645439e+00,-4.767642259184655451e+00,-4.507412735502099643e+00,-4.270537054568168678e+00,-4.117445286228190504e+00,-3.951220422789134101e+00,-3.647229127195727560e+00,-3.288758353114631827e+00,-2.917336235100953079e+00,-2.570755621701242166e+00,-2.200993419122324379e+00,-1.831807570972432408e+00,-1.770278955607275106e+00,-1.932184947411676124e+00,-1.660171926708343682e+00,-1.242467783871996856e+00,2.629686813846816018e-01,4.630440931879612698e+00,7.596747680155426785e+00,9.375568802376646360e+00,1.140568783726752500e+01,1.142877771018979871e+01,1.025110592478603522e+01,1.025213557200541992e+01,1.234279596065437268e+01,1.661611301371012317e+01,1.905472374251824164e+01,2.022218354890197389e+01,2.172478362507814609e+01,2.185720163340235800e+01,2.278969304583351629e+01,2.290548291766915767e+01,2.284511132485586060e+01,2.402286830577808274e+01,2.355221195022621217e+01,2.361896863847344008e+01,2.323702950841680703e+01,2.314565333582060802e+01,2.285286360240645820e+01,2.260052054152689038e+01,2.066040655134320403e+01,1.745889273373341055e+01,1.903286818228371047e+01,1.957706831038542816e+01,1.914731854738852945e+01,1.764178339424754682e+01,1.375009784069558272e+01,1.121438718822055236e+01,9.561694825241090712e+00,9.691627958125058839e+00,1.021900440878592953e+01,9.064941393811020376e+00,5.003445252584374892e+00,1.791009865627758435e+00,-6.612111900390973407e-01,-1.531460124123650512e+00,-2.008286200464216797e+00,-2.387245851708748923e+00,-2.715600103226293083e+00,-2.942423220510905768e+00,-3.220123381851122790e+00,-3.528040943249690198e+00,-3.708583434119769873e+00,-3.899704928770361789e+00
-2.665729603539471082e+00,-2.861791852416466053e+00,-2.973992109167304942e+00,-3.019985247597182898e+00,-3.113254582009969518e+00,-3.390461144908308633e+00,-3.549651270009720694e+00,-3.876867544914651909e+00,-4.147652902158081467e+00,-4.383799844965184711e+00,-4.701714988129690909e+00,-4.855897035277627616e+00,-4.998906017225188236e+00,-5.160190049115545463e+00,-5.228145831822853751e+00,-5.281701645350191932e+00,-5.419713612668393132e+00,-5.567424796178280566e+00,-5.681231559757661920e+00,-5.853307720097078892e+00,-5.956589513130682079e+00,-5.981445442021143144e+00,-5.989057138355025067e+00,-6.077726594746960309e+00,-6.154500653991287429e+00,-6.287988502385309708e+00,-6.439515876352670531e+00,-6.474334686760880864e+00,-6.524683827767671751e+00,-6.511757106741782763e+00,-6.433806262439373924e+00,-6.401481469107452860e+00,-6.388798527105548963e+00,-6.382987435371607177e+00,-6.396095377499603885e+00,-6.401553115016555218e+00,-6.362411822488309276e+00,-6.338319596930847233e+00,-6.278853894184231343e+00,-6.273591055775058933e+00,-6.287145852343358321e+00,-6.254699743981608329e+00,-6.221881023300961822e+00,-6.126588857068587579e+00,-5.988199794775116658e+00,-5.833969316554615148e+00,-5.732877286211164325e+00,-5.653872071951568046e+00,-5.534159921482163291e+00,-5.429769893442490947e+00,-5.291704434266052637e+00,-5.146763556220202318e+00,-4.977432323483492738e+00,-4.777341165856967997e+00,-4.589181125048980903e+00,-4.354074092989579370e+00,-4.133440896201488357e+00,-3.908172306120670125e+00,-3.716931028614807619e+00,-3.416534668363579108e+00,-3.083173965181247311e+00,-2.715973656518789081e+00,-2.308322154354006450e+00,-1.952226806440343188e+00,-1.667996216599445081e+00,-1.552788209889009563e+00,-1.573552104951567499e+00,-1.280255801768496626e+00,-6.490802233862991155e-01,1.278519028137266034e+00,5.601279778963811573e+00,9.476956271676897359e+00,1.205456115226499314e+01,1.286818984961357692e+01,1.246363082054592830e+01,1.243657384038336033e+01,1.313363967251045317e+01,1.492684220772146908e+01,1.787617523717850077e+01,2.031398274010178540e+01,2.210878826533872399e+01,2.399180834631544101e+01,2.334911233976697176e+01,2.355699576588770583e+01,2.371677291960689971e+01,2.389314121294973248e+01,2.488557536776498935e+01,2.309699687045652183e+01,2.293519326114527246e+01,2.359787740144313517e+01,2.469641117605267056e+01,2.339283224967745767e+01,2.251973311709470238e+01,2.102845661206951178e+01,1.763858330934588636e+01,1.950262777573248130e+01,2.048850604906608908e+01,1.962401021219910646e+01,1.764616944847963609e+01,1.294338275163504726e+01,1.046680372718374841e+01,9.315056218184727399e+00,9.075823980457567330e+00,9.847036102225489529e+00,8.776186533338151463e+00,4.804571557871728515e+00,1.682080380294273869e+00,-7.284229089230157550e-01,-1.623299595306618270e+00,-2.125657614092537617e+00,-2.483374111262089290e+00,-2.891783075034247474e+00,-3.148886970157800835e+00,-3.309498350455103655e+00,-3.549569903499980139e+00,-3.735098674839015587e+00,-3.934103738882566148e+00
-2.440184173257168521e+00,-2.664614764981603212e+00,-2.825475374404998075e+00,-2.920976946819053843e+00,-3.052679949311293051e+00,-3.347775398242776923e+00,-3.510632670073238426e+00,-3.788243059033645110e+00,-4.075225253669738201e+00,-4.335745255947784038e+00,-4.646041272662326804e+00,-4.792708544749382682e+00,-4.908501370846180656e+00,-5.027971899408271383e+00,-5.154794672497867047e+00,-5.272188560422621073e+00,-5.383013604970449784e+00,-5.507809052277701234e+00,-5.618159986043927745e+00,-5.788992048578441185e+00,-5.917915161236488863e+00,-5.936301009217653579e+00,-5.926244354848364537e+00,-5.995504698947619282e+00,-6.071084318261767976e+00,-6.207351439748054922e+00,-6.330260836536508506e+00,-6.352118742202585544e+00,-6.374401657395819321e+00,-6.374371672080201279e+00,-6.330326948849091195e+00,-6.313764972403991926e+00,-6.292986510415458312e+00,-6.294300772691485690e+00,-6.329614978404319636e+00,-6.321383758681816012e+00,-6.282899650715341622e+00,-6.239340810301922780e+00,-6.185704316682767434e+00,-6.177730092663009209e+00,-6.167175759801908796e+00,-6.133566288541070222e+00,-6.071659177569770804e+00,-5.970948774748007892e+00,-5.826275599484837642e+00,-5.680854833571843621e+00,-5.572315353688646944e+00,-5.508813301627692560e+00,-5.423226521558727420e+00,-5.317034421355102403e+00,-5.181841031076046100e+00,-5.016635666766235069e+00,-4.821464385932297425e+00,-4.610843778391168435e+00,-4.403961922086391922e+00,-4.161488100440756455e+00,-3.942669986738979393e+00,-3.708719835621161476e+00,-3.509148500340454557e+00,-3.206762447539792671e+00,-2.916234878522147689e+00,-2.572388943004639827e+00,-2.183248373769360207e+00,-1.758559576310916750e+00,-1.351274676217924631e+00,-1.105756659773421635e+00,-9.461052064435484521e-01,-4.101339908805753942e-01,9.357701762008334700e-01,3.178866140181640709e+00,7.490302441289911961e+00,1.130733026216572767e+01,1.401753603449976815e+01,1.482424800542869114e+01,1.366001859590705081e+01,1.475790513677021920e+01,1.662787855061131026e+01,1.758163959682653044e+01,1.977110971700762931e+01,2.174734608606843267e+01,2.317601607371367223e+01,2.536309595787221483e+01,2.552483815905346276e+01,2.509245365419887719e+01,2.457008436571270238e+01,2.486245692866715729e+01,2.553640274521214693e+01,2.275344658029170120e+01,2.235209645119181587e+01,2.402288343228997292e+01,2.638184445908992970e+01,2.509440947480000972e+01,2.352802280828463566e+01,2.206347297933378471e+01,1.972057702954417380e+01,2.133320406378284417e+01,2.114937034177490460e+01,1.999540893355926485e+01,1.729199583401545937e+01,1.192394731153140519e+01,9.137104633408396737e+00,8.338394108865276877e+00,8.866310586974732288e+00,9.850908702013629892e+00,8.842095758026918162e+00,4.482691208512887826e+00,5.572505845309142503e-01,-1.346698319433774271e+00,-2.047527591344132869e+00,-2.427629036553519359e+00,-2.761270750910391314e+00,-3.212396663928017482e+00,-3.456518225036505410e+00,-3.581386103624336847e+00,-3.689794859035664842e+00,-3.867652354040056473e+00,-4.081109044967305088e+00
-2.328310694018588478e+00,-2.525427990244556220e+00,-2.690434278516061983e+00,-2.857715597623368797e+00,-3.045354746757493292e+00,-3.387803364176478205e+00,-3.582555766507749873e+00,-3.764267360581158961e+00,-4.027745053661965002e+00,-4.254998135363735834e+00,-4.506119709307887966e+00,-4.669997679669259938e+00,-4.780677599201635708e+00,-4.909664041873254448e+00,-5.147412761787133029e+00,-5.323684063616156870e+00,-5.402490559385219271e+00,-5.500628053374681414e+00,-5.604189123943446482e+00,-5.736303913889639006e+00,-5.855738085979798946e+00,-5.907490825606567242e+00,-5.919319861670255811e+00,-5.933738968523988078e+00,-5.973572934864443518e+00,-6.066532168030214223e+00,-6.114743968779306371e+00,-6.185129357952837914e+00,-6.239347680678474006e+00,-6.231750151912642366e+00,-6.201787990072120671e+00,-6.209875845299539954e+00,-6.189118402691798693e+00,-6.162101103257401569e+00,-6.185029428790427275e+00,-6.160667769548962447e+00,-6.120510361379526643e+00,-6.083816570561547010e+00,-6.063607679205956558e+00,-6.050264786447892007e+00,-6.012016572020059790e+00,-5.950906274553259934e+00,-5.830988032123564757e+00,-5.782595786600777110e+00,-5.691080425129725562e+00,-5.571908707740058198e+00,-5.473010055292424347e+00,-5.343707168270833918e+00,-5.208874827949149022e+00,-5.098133140155225895e+00,-4.962619367936320636e+00,-4.809645756217946655e+00,-4.622621810445517454e+00,-4.434888433575484790e+00,-4.245194601878970353e+00,-3.973733330154810783e+00,-3.733170630272848012e+00,-3.472005522055722437e+00,-3.243288722493617993e+00,-2.912082494180813885e+00,-2.639925003874119103e+00,-2.344694249687435228e+00,-2.004482556943600002e+00,-1.493842223076597975e+00,-8.785793106306079014e-01,3.304251631660905519e-01,1.634107807117005207e+00,2.265636734710379852e+00,3.565036747241926651e+00,5.687625837292160647e+00,9.348739017652308192e+00,1.315633617783255715e+01,1.609478242969442618e+01,1.775127604069596998e+01,1.662193580906044232e+01,1.724593971674462978e+01,1.864334074613998382e+01,1.977145999347349203e+01,2.226031347882785738e+01,2.368618280293097200e+01,2.466486488607218774e+01,2.598289777930068212e+01,2.578173922375709637e+01,2.594719357891405664e+01,2.597722301356797558e+01,2.649826978350977669e+01,2.696086569308997838e+01,2.381877617456976282e+01,2.383292764734359181e+01,2.433765218089181914e+01,2.573087142165889318e+01,2.602228417468393928e+01,2.529177252518126906e+01,2.363581938938102311e+01,2.216154700782098175e+01,2.378339949628516337e+01,2.266217108107014155e+01,2.054712518788737796e+01,1.648224822672230516e+01,1.145477135597350582e+01,9.254819307615216317e+00,8.333239713967905971e+00,9.182894309826563628e+00,9.821414445723970488e+00,8.321661925957368311e+00,3.351681264215145006e+00,-9.786007435261130372e-01,-1.825537241360127627e+00,-2.350982961574014762e+00,-2.693895128358125390e+00,-3.046646173990037010e+00,-3.533082394105365065e+00,-3.767196778826565229e+00,-3.943899851804598011e+00,-4.015774709195241599e+00,-4.105655228492348208e+00,-4.256383915889199621e+00
-2.196823278520670275e+00,-2.272969689795385939e+00,-2.462028545205811714e+00,-2.645799918256338312e+00,-2.827226510063661102e+00,-3.253572283116109354e+00,-3.514221076505140484e+00,-3.720862193687913599e+00,-3.963858281516417836e+00,-4.163491043032560235e+00,-4.393133086758156836e+00,-4.577270447755470428e+00,-4.736874574035231156e+00,-4.911545206842003353e+00,-5.109302146952684254e+00,-5.226728086539267792e+00,-5.321899382418790125e+00,-5.400062067450542180e+00,-5.489484588041133151e+00,-5.659423154080037932e+00,-5.802617064845915884e+00,-5.886960571970117684e+00,-5.888082601785540326e+00,-5.827294775856595166e+00,-5.830811652954841051e+00,-5.887229289174310765e+00,-5.927998721763045431e+00,-6.051354789636517850e+00,-6.125244863927484573e+00,-6.142380391924971761e+00,-6.120613206931781569e+00,-6.132694964287949801e+00,-6.139968724963344116e+00,-6.153020178416348074e+00,-6.175326200800407506e+00,-6.132862142009347650e+00,-6.084499712375558644e+00,-6.035384500285370990e+00,-6.019738961910913844e+00,-5.944381456659509233e+00,-5.840520457554576161e+00,-5.722398872945813508e+00,-5.533877848430351243e+00,-5.461349607050307142e+00,-5.393473361967140001e+00,-5.314136267711270456e+00,-5.257076811393527116e+00,-5.122890777791883288e+00,-4.972115583948600204e+00,-4.871960607205694238e+00,-4.723287630335386567e+00,-4.577944374969549202e+00,-4.431372724996115231e+00,-4.210809372452561483e+00,-4.023945789514955074e+00,-3.828118896101680324e+00,-3.592427312364061098e+00,-3.252750369908360639e+00,-2.920449662305102834e+00,-2.633468963388983841e+00,-2.307109811541616651e+00,-1.961424087763074198e+00,-1.641988613334214975e+00,-9.773373238282054842e-01,4.828507935171924559e-01,1.950108395546906070e+00,3.764396665649084817e+00,5.607602115595929249e+00,7.375818475506950023e+00,8.766670122697814094e+00,1.171127156176039286e+01,1.561099289183106364e+01,1.824602816596274479e+01,1.861963151181457832e+01,1.684371728777015775e+01,1.735856070512565097e+01,1.904082296887710868e+01,2.119500365497349392e+01,2.334721185391402187e+01,2.448863053825551361e+01,2.616565975040466796e+01,2.739651714749224354e+01,2.701068132457110593e+01,2.793073637909655460e+01,2.843252761802105155e+01,2.773668028993066059e+01,2.708130980240732200e+01,2.433762665742209563e+01,2.420284715716472945e+01,2.474729952828380775e+01,2.575308276905693461e+01,2.510657522552377685e+01,2.458838791480710739e+01,2.316065151945704770e+01,2.144904056647692769e+01,2.303695949484006888e+01,2.250531859521379374e+01,1.965147240864796885e+01,1.604294871821273460e+01,1.258524566665065336e+01,1.041277273660042901e+01,8.352026187991791417e+00,7.488068921210008888e+00,6.349528006547103587e+00,3.862986721973233895e+00,5.932927478793893483e-01,-1.515587437175600627e+00,-2.106361832901559872e+00,-2.489425584088993393e+00,-2.793526875786523700e+00,-3.154902234704472619e+00,-3.614751229232010754e+00,-3.905083161731968566e+00,-4.130999679603520214e+00,-4.273194235667133078e+00,-4.392670057851410625e+00,-4.495944222451830896e+00
-1.941812134047615990e+00,-1.992593382856554074e+00,-2.318619738939873720e+00,-2.474640056933453458e+00,-2.607815910986384100e+00,-3.054291448447568058e+00,-3.323433347475866384e+00,-3.612115121712149435e+00,-3.882796185696563818e+00,-4.063269894582694164e+00,-4.279175433532994788e+00,-4.462684226698735657e+00,-4.652644541145336099e+00,-4.886962355248595458e+00,-5.056615419425950719e+00,-5.094883763324075332e+00,-5.189142532822932807e+00,-5.273541569222850889e+00,-5.374447501767210866e+00,-5.575995421193078450e+00,-5.736362504321590450e+00,-5.855699666586376750e+00,-5.847735107893004880e+00,-5.736412523335506108e+00,-5.728852532610044790e+00,-5.738921681956588472e+00,-5.764012701596198163e+00,-5.903300644039810585e+00,-5.959041822738797123e+00,-5.989649293770315630e+00,-5.963649710082767008e+00,-5.989738360974683040e+00,-6.035645980158361290e+00,-6.082179948877823428e+00,-6.096648081929637364e+00,-6.057801852276235799e+00,-6.023355875553259686e+00,-5.968145400671575729e+00,-5.963865321643758044e+00,-5.863182275372984087e+00,-5.730710165127717914e+00,-5.591229709692838057e+00,-5.371409283324575235e+00,-5.236588833921186570e+00,-5.157621306567025776e+00,-5.067142580595971779e+00,-4.999355365788666461e+00,-4.938524831157454997e+00,-4.852858722618361931e+00,-4.746762417441068749e+00,-4.566616075848625833e+00,-4.340797098014908428e+00,-4.142817814897702178e+00,-3.922383271190879039e+00,-3.779966724211814455e+00,-3.603479208289196656e+00,-3.298820950156990950e+00,-2.946151925743567990e+00,-2.584403848030297990e+00,-2.336230234087833146e+00,-1.916259900566721353e+00,-1.438947722964629694e+00,-1.061199210151762884e+00,3.976087253308739911e-01,2.311322455597013992e+00,3.996838736071172793e+00,6.168860817112600259e+00,8.677726566086912285e+00,1.009790721558927196e+01,1.151514060670263007e+01,1.462983705549677182e+01,1.772771420747410787e+01,1.911101382780201874e+01,1.963385343986596965e+01,1.864761402190857353e+01,1.903341320987254548e+01,2.100750606356743688e+01,2.427544433488412068e+01,2.612973827511444824e+01,2.623041044491739271e+01,2.786285872410541486e+01,2.910842411116042072e+01,2.863609704666869860e+01,2.950678490669195497e+01,2.966543951267285451e+01,2.923349381416040060e+01,2.893911793367169594e+01,2.594491615576961863e+01,2.504119906147830932e+01,2.587879094671864522e+01,2.675191948425377930e+01,2.575618783841609627e+01,2.603925436851974595e+01,2.460859058226398943e+01,2.242542017374415053e+01,2.208816580727372880e+01,2.025804331685689164e+01,1.763603887304859441e+01,1.538351766300529633e+01,1.300112560204711443e+01,1.039079528603256897e+01,8.005795956607411057e+00,6.250583673226426384e+00,4.719621066880626437e+00,2.445952688560657950e+00,-7.534623355048766236e-01,-1.933734839746346745e+00,-2.407913172676297897e+00,-2.697888573432292603e+00,-2.958588860899861395e+00,-3.319486036521696715e+00,-3.711551437610706383e+00,-4.020474841709275715e+00,-4.250708499902314585e+00,-4.418415449706692755e+00,-4.599415232731800529e+00,-4.692718928478556428e+00
-1.644602787782372344e+00,-1.777163383031931110e+00,-2.080503198027693124e+00,-2.209050389609723553e+00,-2.350382063752630923e+00,-2.794734537048277456e+00,-3.095923861004748368e+00,-3.464198753896289507e+00,-3.787252123858965369e+00,-3.950869369313635637e+00,-4.111133445968456535e+00,-4.337148148332208741e+00,-4.533047372452797319e+00,-4.735792867871339240e+00,-4.900515624089392119e+00,-4.923053192568357161e+00,-4.985705190989163427e+00,-5.116322789966782025e+00,-5.300364348191662245e+00,-5.475610647566621303e+00,-5.589420499580718626e+00,-5.721073371620289727e+00,-5.724601997039063583e+00,-5.604148419820687899e+00,-5.575446381146318409e+00,-5.580522583880955345e+00,-5.626925044146543264e+00,-5.773205801137293314e+00,-5.855270922651087950e+00,-5.873001091747085844e+00,-5.809661948160311340e+00,-5.810778863417827012e+00,-5.852142744584794443e+00,-5.914077985951490035e+00,-5.929532169011118015e+00,-5.884875659336125331e+00,-5.838932500644645529e+00,-5.784520581408687967e+00,-5.775162243799528916e+00,-5.694896597733611898e+00,-5.573074659889201143e+00,-5.424295219449550842e+00,-5.259920652478762726e+00,-5.104213639190034790e+00,-5.000652862684582978e+00,-4.893480035619665713e+00,-4.792720563953639434e+00,-4.796306239094701773e+00,-4.760580338938808609e+00,-4.628993174520801723e+00,-4.396378631829094275e+00,-4.104260557296663059e+00,-3.858597012705382134e+00,-3.611831034514779493e+00,-3.462441132848693481e+00,-3.288672916192142637e+00,-2.966087462341683523e+00,-2.617737502744794220e+00,-2.196555152707424075e+00,-1.885289327457774666e+00,-1.284135904759438507e+00,-5.043364185068414107e-01,7.219420471360872282e-01,2.645979926194879095e+00,4.099407308946813266e+00,6.712092232386461355e+00,9.882244869293668188e+00,1.245245422909463429e+01,1.404615623964907023e+01,1.554258360314733523e+01,1.764053110948081837e+01,2.056453106513549400e+01,2.165995999824306395e+01,2.212161511886093734e+01,2.231021060812580714e+01,2.216246816110257356e+01,2.331055458942011427e+01,2.652442065233113766e+01,2.840089863583465046e+01,2.917583784433091409e+01,3.070027403622711404e+01,3.015579973009067061e+01,2.971249423381680543e+01,3.098866500625974041e+01,3.098378808650830862e+01,3.108025965250495659e+01,3.110584718815636052e+01,2.849399068208311192e+01,2.716756950152483796e+01,2.716886532071750082e+01,2.800029335177324796e+01,2.779618570000988242e+01,2.763454458516075718e+01,2.608342612064435428e+01,2.359650418806385019e+01,2.166288697678790243e+01,1.936973123044399969e+01,1.762302221906100286e+01,1.594053746848884856e+01,1.433463901347366942e+01,1.186511733562470106e+01,9.062402113182985275e+00,6.573410853111933072e+00,3.978686193214483247e+00,1.363140122038338120e+00,-1.130515813756961307e+00,-1.965534752667123630e+00,-2.442753820988755820e+00,-2.772270457862890058e+00,-3.089071935294604998e+00,-3.496749538210067065e+00,-3.831938389521159838e+00,-4.084697093324173522e+00,-4.324305959278200717e+00,-4.532178567851479656e+00,-4.695280475839826551e+00,-4.803482179297590804e+00
-1.361956415943186283e+00,-1.596345251757404382e+00,-1.862557645006271967e+00,-1.907923819308913416e+00,-2.016971847312880151e+00,-2.555895179217044788e+00,-2.963852329665576768e+00,-3.351623930282083830e+00,-3.675477595889117488e+00,-3.858270964185027019e+00,-3.993515819054965554e+00,-4.199117298874925908e+00,-4.341211595882653818e+00,-4.511508589569279692e+00,-4.671814439857764789e+00,-4.737848978273094147e+00,-4.825609333378809929e+00,-4.934580741346746180e+00,-5.139792342335226749e+00,-5.339338307138550732e+00,-5.452910284643357919e+00,-5.517155569681420957e+00,-5.451881701085897980e+00,-5.400071669451763867e+00,-5.429830267388411791e+00,-5.498720597974777746e+00,-5.634047962290148703e+00,-5.724619364278693112e+00,-5.773844263566974888e+00,-5.789322853281634984e+00,-5.698764111505174590e+00,-5.663648268027619892e+00,-5.690043174212267019e+00,-5.701034487408699114e+00,-5.650067429174277400e+00,-5.607155738809276535e+00,-5.556891631675835441e+00,-5.501182886162577113e+00,-5.484938022283913028e+00,-5.462031234987914097e+00,-5.387396468709732211e+00,-5.262757906520787898e+00,-5.192279062301891734e+00,-5.006701754262980586e+00,-4.868222899635953560e+00,-4.812610449908378385e+00,-4.748569491097768491e+00,-4.699893797715740007e+00,-4.594750411847014604e+00,-4.417703676246538258e+00,-4.105118288331470744e+00,-3.783524860114515498e+00,-3.535569926709457356e+00,-3.276959713269117724e+00,-3.141498640624498240e+00,-3.031179084019904213e+00,-2.760019012285777062e+00,-2.354698832677103670e+00,-1.761995425205575394e+00,-1.391966121540611834e+00,-2.563501011071407931e-01,1.432319260649418391e+00,3.379970638229796265e+00,6.356921798257658907e+00,7.990629439178747795e+00,9.893602421614644982e+00,1.219011819501227656e+01,1.547198366947463199e+01,1.800718257215863005e+01,1.946056286400995816e+01,2.031944088406255489e+01,2.372698046331266042e+01,2.522022455738962066e+01,2.544797205871790879e+01,2.671437883061894780e+01,2.627733318378409777e+01,2.683909574508315288e+01,2.951105585910004692e+01,3.090469889470523057e+01,3.153178996059508421e+01,3.208458718352787997e+01,3.139165408156633319e+01,3.265625481905177452e+01,3.451089108932534799e+01,3.448440467597855275e+01,3.332049573886880722e+01,3.188282814424451317e+01,2.927704166631578531e+01,2.713111824543024753e+01,2.706014392074538932e+01,2.862175740983944650e+01,2.861231921740646200e+01,2.739132753286992283e+01,2.577080310488925718e+01,2.304404372633104714e+01,2.050739619971807315e+01,1.870944264987763717e+01,1.721439757678966842e+01,1.551006845499897224e+01,1.554797735498889466e+01,1.405487368797058423e+01,1.038880637026816522e+01,6.760636699602904365e+00,3.742880027635123952e+00,1.241074090693744525e+00,-1.132091889519370120e+00,-1.801431779604117933e+00,-2.316708124701579052e+00,-2.701242475951031174e+00,-3.081947834527142049e+00,-3.544717161255279247e+00,-3.858353262700919828e+00,-4.082375627608866964e+00,-4.285473109032929884e+00,-4.490823860636717235e+00,-4.659267584435553999e+00,-4.802167956868613530e+00
-1.420720225590405894e+00,-1.665582367595052959e+00,-1.976118736025568090e+00,-2.027705524573145901e+00,-2.121708433917241621e+00,-2.609177717297219701e+00,-2.990909341577525193e+00,-3.304490439043084926e+00,-3.530696787016657456e+00,-3.710359979311887546e+00,-3.825603395587307443e+00,-3.988973227482809136e+00,-4.160060621016585358e+00,-4.374741112551655320e+00,-4.575784996001580396e+00,-4.688615279815026682e+00,-4.785001869567164334e+00,-4.875952020509211060e+00,-5.006860802716248671e+00,-5.199642263382314944e+00,-5.325780137014609394e+00,-5.366199151667429668e+00,-5.308971181622646363e+00,-5.265152786160805398e+00,-5.293761756863315071e+00,-5.366866926200605903e+00,-5.494377614966887258e+00,-5.548086726149490389e+00,-5.553880487247218056e+00,-5.559123513324184529e+00,-5.497392536497754278e+00,-5.481098395876879970e+00,-5.480191662093829130e+00,-5.479324854426846692e+00,-5.485853947530250352e+00,-5.408443700036473345e+00,-5.341387688154842550e+00,-5.268372484788661936e+00,-5.204770125459118546e+00,-5.243106639558877013e+00,-5.232302251698934370e+00,-5.185353520679288231e+00,-5.117758989374588730e+00,-4.871352605775966182e+00,-4.697500893979310810e+00,-4.613290323344802601e+00,-4.554853699515255983e+00,-4.463822789735041319e+00,-4.266391627020520438e+00,-4.012166029888867058e+00,-3.622481412422475344e+00,-3.345818121992311767e+00,-3.169951992810700947e+00,-3.024662265737891875e+00,-2.920215451590754352e+00,-2.695706583825902669e+00,-2.302163887444448775e+00,-1.537974524197827320e+00,3.965477161977530862e-01,1.357207479378538251e+00,3.431205740670289828e+00,5.623386944708323121e+00,6.974665980623924177e+00,1.004795167382548193e+01,1.302020813442707592e+01,1.501449953016997085e+01,1.748843315753059713e+01,1.984754743353957096e+01,2.126839686172757737e+01,2.153102934926257106e+01,2.061937691643539949e+01,2.457669944219295033e+01,2.685110606372800746e+01,2.904301881453087830e+01,3.140043858484288108e+01,3.126979971564755800e+01,3.284958469830421279e+01,3.594871689830635830e+01,3.800768774592991406e+01,3.653924520727091618e+01,3.530956780702965858e+01,3.421116495780209021e+01,3.454144912181565985e+01,3.554249058672409944e+01,3.564900082985026586e+01,3.397206700154671921e+01,3.185515026865943256e+01,3.074497951881093272e+01,2.900819910895910780e+01,2.821864815193501030e+01,2.810125926859844014e+01,2.810751218300297083e+01,2.812169026833437968e+01,2.750557336270729536e+01,2.596109789714004989e+01,2.321796271313967353e+01,2.128488628753576251e+01,1.998503143038351482e+01,1.781172654018797985e+01,1.643552332167255869e+01,1.410502319748585442e+01,1.098748295730692881e+01,7.744247362739395513e+00,4.911960561047004070e+00,2.035358752083324951e+00,-1.264061754462911358e+00,-2.018701031640686594e+00,-2.474518874656169931e+00,-2.934288285165238985e+00,-3.340523098066233043e+00,-3.740443529998123129e+00,-3.998955008374154296e+00,-4.207964622775297592e+00,-4.370787859769365014e+00,-4.501053102022381402e+00,-4.713563801057376601e+00,-4.916933007404955980e+00
-8.935514325835335336e-01,-1.329236694142980957e+00,-1.805054078062118705e+00,-1.887475810990408842e+00,-1.994237933016898223e+00,-2.482479031928848556e+00,-2.867779789008132241e+00,-3.223742357298998051e+00,-3.446471694390987217e+00,-3.596484990288400407e+00,-3.666263018628528325e+00,-3.782236885277825422e+00,-3.984356213559184123e+00,-4.181234218280037496e+00,-4.365796852747811485e+00,-4.535889235433015365e+00,-4.648238366315912806e+00,-4.763473553523426496e+00,-4.858148583463328229e+00,-5.000307884855342166e+00,-5.098036986108348323e+00,-5.163834049124228720e+00,-5.164784058990549376e+00,-5.118714763022888192e+00,-5.135543415697274128e+00,-5.207024926199529169e+00,-5.320701989318489034e+00,-5.400860049083434866e+00,-5.425306534410386128e+00,-5.360404128253012601e+00,-5.269881540697023858e+00,-5.291703753324222603e+00,-5.279376635921057215e+00,-5.258356517214322956e+00,-5.319278989436011074e+00,-5.192418241394953782e+00,-5.094187739920784885e+00,-5.045269573902987581e+00,-4.973760391378866608e+00,-5.045582829920769896e+00,-5.070411546393846614e+00,-5.065726606408747834e+00,-4.960731917831508575e+00,-4.686312964168641848e+00,-4.514931305337871237e+00,-4.349613435749827950e+00,-4.245494668207985711e+00,-4.189974200654461356e+00,-3.974874384523864546e+00,-3.693760288530847813e+00,-3.288711144313387180e+00,-3.030351155758036708e+00,-2.896936994201534610e+00,-2.771739968863111248e+00,-2.576564189855558684e+00,-2.188981750559424011e+00,-1.556236343904588981e+00,3.044476674655275383e-01,3.370240471384065462e+00,4.950295666782599469e+00,7.574045110921443502e+00,1.021958201015879375e+01,1.091706421525639392e+01,1.277701567271189020e+01,1.592231014381882837e+01,1.870722638213873168e+01,2.211168479911209062e+01,2.489901000560086075e+01,2.663290460907147761e+01,2.635676252593954061e+01,2.429081362922016751e+01,2.835672944329926892e+01,3.090815837288822010e+01,3.375620441484245760e+01,3.581686806296917780e+01,3.490222804600719542e+01,3.642210219737982868e+01,3.923065868046275284e+01,4.126004171598659553e+01,4.009459979666080898e+01,3.947983376453341720e+01,3.764635259456422745e+01,3.670563679079633346e+01,3.599171966932649269e+01,3.538815444096883311e+01,3.497459362971488162e+01,3.392291547663047879e+01,3.378936389880833957e+01,3.192723409964302306e+01,3.085097477214414496e+01,2.948167790185629400e+01,2.813910615737405152e+01,2.803151768785701137e+01,2.813326732364717486e+01,2.751733626323713366e+01,2.547742579248306427e+01,2.428930341732860398e+01,2.203419255654282694e+01,1.827326238972430517e+01,1.665038631514062217e+01,1.462954526353179752e+01,1.118546892312177121e+01,7.568279988202489150e+00,4.587466937701760727e+00,1.241983031473744337e+00,-1.483073168576209744e+00,-2.079077275925537815e+00,-2.551953232383971315e+00,-3.126052227337007050e+00,-3.591172829308997727e+00,-3.965030782034172141e+00,-4.143629165438475148e+00,-4.311615590416993271e+00,-4.488149875649650511e+00,-4.594775725154521595e+00,-4.812054553880370733e+00,-5.038818366898123458e+00
9.062145101121090729e-01,-5.801426099192867891e-01,-1.396336618869901791e+00,-1.467029303711377075e+00,-1.438332363136687553e+00,-2.095426016032394312e+00,-2.639863402807210324e+00,-3.038772442540775831e+00,-3.242999320860538770e+00,-3.414640075835923660e+00,-3.545865003249776937e+00,-3.607131540856730822e+00,-3.728350761428037785e+00,-3.947824632805181810e+00,-4.195696576752868445e+00,-4.381323882030925709e+00,-4.499129415113948482e+00,-4.617325486967292392e+00,-4.688259105958680450e+00,-4.819137638907124987e+00,-4.882222471023036192e+00,-4.945652621377065294e+00,-5.011493689291073750e+00,-4.983020387445884936e+00,-4.977219492938469436e+00,-5.044119076271571522e+00,-5.186944477688979482e+00,-5.264318643680395482e+00,-5.286400705936249445e+00,-5.225158156694700295e+00,-5.110432226680056367e+00,-5.119980281902653196e+00,-5.089562482717987280e+00,-5.058067925846464696e+00,-5.092125043002035945e+00,-4.950308203020645337e+00,-4.850997410656653130e+00,-4.813136309209104624e+00,-4.813304217478765246e+00,-4.921153430041744770e+00,-4.922629508749465366e+00,-4.834497429475633545e+00,-4.668395850608010100e+00,-4.423318333265728874e+00,-4.245210076958140455e+00,-4.049301161131305449e+00,-3.913324691228763808e+00,-3.838650554848055840e+00,-3.640066726730160962e+00,-3.370412670205461758e+00,-2.952164341077494480e+00,-2.693104689030512144e+00,-2.478670889393765009e+00,-2.297907788178264799e+00,-2.055899693420743191e+00,-1.417217587118199562e+00,4.554548334815931021e-01,3.165699186936755005e+00,6.029533065035669104e+00,8.459291073997198041e+00,1.080652943538009225e+01,1.331986989401494803e+01,1.485514195749739486e+01,1.664232226272826054e+01,1.866068381406334709e+01,2.159576011295548525e+01,2.579936041021667492e+01,3.013151192372264120e+01,3.238787691104953126e+01,3.186010603521016193e+01,2.893771464683132777e+01,3.195856683317368052e+01,3.523105503215683143e+01,3.778722645057666796e+01,3.973086117067938261e+01,3.863101727496346882e+01,3.844467889186498866e+01,3.971073363664034162e+01,4.171864300755944299e+01,4.162414212454416429e+01,4.150153548480523114e+01,4.006220926289237383e+01,3.872427830167951157e+01,3.719214858692621561e+01,3.666563193931141740e+01,3.649542830579773067e+01,3.586962524100647443e+01,3.589526882331664837e+01,3.423194093754825928e+01,3.310038820739612220e+01,3.132064791924031510e+01,2.841118520453398233e+01,2.625029313039814483e+01,2.641430372695023721e+01,2.713785095589095420e+01,2.573608901298577223e+01,2.431042079950211487e+01,2.133672736052313113e+01,1.701764225347870862e+01,1.534682247225461182e+01,1.346225006573801863e+01,1.031081038308973596e+01,6.361238134683713241e+00,3.289368843335567671e+00,6.867785834964459379e-01,-1.618373139612256484e+00,-2.270455927707783150e+00,-2.755736329725455569e+00,-3.290459569422774955e+00,-3.743943900639497890e+00,-4.088987488196270448e+00,-4.254026817552469808e+00,-4.407140157238099043e+00,-4.590711462526513742e+00,-4.749750160893229989e+00,-4.971901962044610990e+00,-5.180565881150959839e+00
2.744361224682268396e+00,2.013001657362323282e+00,1.095679875565056527e+00,1.611823467904758556e-01,3.614495958477380311e-02,-1.259128610479281818e+00,-1.969111800458371420e+00,-2.586250194772842015e+00,-2.866701118395661663e+00,-3.065104637543565769e+00,-3.265402506190794973e+00,-3.403353940982840609e+00,-3.563531893086189228e+00,-3.752117711868594441e+00,-4.019432631346746554e+00,-4.266566756000475635e+00,-4.431895758113291173e+00,-4.508842670638403050e+00,-4.511801938715629845e+00,-4.639835669536404694e+00,-4.674371779584106434e+00,-4.710857641690266107e+00,-4.823319157616094088e+00,-4.823990880959276417e+00,-4.804648423492505316e+00,-4.839443766504018640e+00,-4.987984719705939263e+00,-5.100805994711785196e+00,-5.157504984328343589e+00,-5.129557228715147410e+00,-5.020269747491527212e+00,-4.993869686702127275e+00,-4.921248209206922297e+00,-4.898356826141690767e+00,-4.922779501145926773e+00,-4.782853969030664842e+00,-4.700657857718201882e+00,-4.642879155154743920e+00,-4.687423663590866596e+00,-4.761199686621301552e+00,-4.665179956772988135e+00,-4.506294587364408244e+00,-4.291579673365734315e+00,-4.080731147731206043e+00,-3.896812334765750396e+00,-3.757800457170494823e+00,-3.683870856784400072e+00,-3.601733852849795081e+00,-3.442299341567044202e+00,-3.171484975559085484e+00,-2.726111845073513784e+00,-2.395084090121451847e+00,-1.976430369621460459e+00,-1.405804756359336327e+00,0.000000000000000000e+00,1.721630847459857838e+00,4.301120901244566141e+00,6.638807173268582495e+00,9.117545858696111338e+00,1.283346133695778946e+01,1.518029481145545745e+01,1.721726382458594884e+01,1.935440275931734888e+01,2.128656506206839083e+01,2.232301992081961828e+01,2.439179248599719330e+01,2.835056581893255867e+01,3.424310551894586041e+01,3.700790747891063148e+01,3.770519108695395261e+01,3.534714180818716756e+01,3.550935485269804559e+01,3.774506790751082974e+01,3.906544987797644097e+01,3.995257179328637420e+01,3.970851939284277421e+01,3.880832017666894984e+01,3.924360926704289199e+01,4.196009035487618632e+01,4.245181558199780625e+01,4.233493921498882173e+01,4.216909576219548228e+01,4.128873410683006995e+01,3.843294644035270125e+01,3.750115974320344492e+01,3.786700523072168778e+01,3.796503301536744601e+01,3.920719017731904898e+01,3.879131840931174935e+01,3.594455771025979374e+01,3.212875140050177691e+01,2.870388491978700074e+01,2.553008428189536616e+01,2.389887807752921134e+01,2.406748261451984661e+01,2.371371889058635318e+01,2.247101688317298240e+01,1.897120029311961176e+01,1.431728223346051720e+01,1.191808416537713278e+01,9.540080991216845163e+00,7.480057575946706727e+00,4.042916007941852463e+00,1.231097981189916313e+00,-5.191385499847117613e-01,-1.804909814180377881e+00,-2.421632703441847667e+00,-2.867978738154639107e+00,-3.332314902187400563e+00,-3.735395981870272664e+00,-4.015823528685299237e+00,-4.273663344714491608e+00,-4.508637799182763750e+00,-4.717517256531130521e+00,-4.943137056557586284e+00,-5.157375101966097830e+00,-5.337607880296046936e+00
4.367639901554567494e+00,3.606852052647544493e+00,3.249923229628141286e+00,1.918890063484063324e+00,1.111490780545390189e+00,-6.722804919301593740e-01,-1.542437214230588216e+00,-2.217929945259344393e+00,-2.620815004486591437e+00,-2.840332716711851280e+00,-3.027197748557384216e+00,-3.200992828914241528e+00,-3.384424535802633915e+00,-3.465399257359902396e+00,-3.580085882076605941e+00,-3.886541337747104308e+00,-4.078032410717572276e+00,-4.192270020200886904e+00,-4.266846267730405984e+00,-4.370580394510146682e+00,-4.450046620334473069e+00,-4.531703962040094069e+00,-4.621167831294146211e+00,-4.641446105527388788e+00,-4.681262842990341788e+00,-4.673869370614698759e+00,-4.719664897032690654e+00,-4.858493923655990976e+00,-4.934824785018691706e+00,-4.933740348375960316e+00,-4.903696227008466302e+00,-4.854913705888455944e+00,-4.792923573135487558e+00,-4.769992428711482546e+00,-4.762145196130613378e+00,-4.639479700884090896e+00,-4.523877191716807467e+00,-4.445444407128487541e+00,-4.444533201032601966e+00,-4.438862827709010084e+00,-4.308505637518697640e+00,-4.122303009557781728e+00,-3.938046235235246328e+00,-3.805227498903782202e+00,-3.695124965345885748e+00,-3.600776769880659423e+00,-3.536241195596021125e+00,-3.435704535451778341e+00,-3.278175171748063388e+00,-3.078853133627815097e+00,-2.777404204987258041e+00,-2.397017851484350093e+00,-1.810506855884232325e+00,-8.421611959240881129e-01,1.908375804837670886e+00,3.012063823578358779e+00,4.225945533274443555e+00,5.540850036000591672e+00,7.268135499579385872e+00,1.060579782873139898e+01,1.268285852240450318e+01,1.421756074126282243e+01,1.628049457624267049e+01,1.882856647504086922e+01,2.148532568369577334e+01,2.428760362898956870e+01,2.804525506473157037e+01,3.281829696391497464e+01,3.530330261541974579e+01,3.726800726533295460e+01,3.734582423256983930e+01,3.713670516517757392e+01,3.773482321113542781e+01,3.782897166471288131e+01,3.705730097980499949e+01,3.670572622497445536e+01,3.590095962437678168e+01,3.691654040427845729e+01,4.076168538979329981e+01,4.159873659793185396e+01,4.085150334294144159e+01,4.094382499656851593e+01,4.000651600920416939e+01,3.646032556720574291e+01,3.514027859076563942e+01,3.511537461307582930e+01,3.455639378991444488e+01,3.579129824935126436e+01,3.517721009892859740e+01,3.240731217425999944e+01,2.917391750724934951e+01,2.735884800911950165e+01,2.568682592541640730e+01,2.278142938428892705e+01,2.169199162243205237e+01,2.190876933362233103e+01,2.129570258053341902e+01,1.789385734252114091e+01,1.398723351338489351e+01,1.198040245099857692e+01,9.823621567910091557e+00,7.543029965258442715e+00,4.127093020971118520e+00,1.773298013990640021e+00,2.735756351068319714e-01,-1.386185847887043465e+00,-1.979819582973614045e+00,-2.651546939183895280e+00,-3.226381676884493732e+00,-3.635519063037974341e+00,-3.955176278000658296e+00,-4.214398201442032921e+00,-4.415303611537789941e+00,-4.619824122713919401e+00,-4.859707328831496476e+00,-5.043152623386352396e+00,-5.198453752757410840e+00
6.515521993319874916e+00,4.852062399771956969e+00,4.373493325016142741e+00,3.966569148165115521e+00,3.394835569507680173e+00,7.900720905685318929e-01,-1.067588350482803650e+00,-1.749262105543358592e+00,-2.254065044217139935e+00,-2.556681578584580894e+00,-2.774269532733063315e+00,-2.950168324063659586e+00,-3.124984605862803910e+00,-3.247154509635017838e+00,-3.336374247592298836e+00,-3.617690819807502400e+00,-3.758661722646415182e+00,-3.888805626632753309e+00,-4.018891303810982585e+00,-4.080585740779683057e+00,-4.196523147580644597e+00,-4.338136496808193243e+00,-4.412380435801005696e+00,-4.408570055003751875e+00,-4.467811620616006785e+00,-4.515073250090142487e+00,-4.548068122574272287e+00,-4.643334449254940210e+00,-4.672086504454822098e+00,-4.677018678497005588e+00,-4.708784689040273364e+00,-4.660132815064640610e+00,-4.633859821419267000e+00,-4.576804021577463466e+00,-4.499549523254560590e+00,-4.444929287691694597e+00,-4.344903284161978796e+00,-4.266515862415662497e+00,-4.238329387310789897e+00,-4.148519375243370000e+00,-3.984892707871853013e+00,-3.782454232213913858e+00,-3.651807961401856151e+00,-3.535578560073581844e+00,-3.431056557962365972e+00,-3.346148138618155077e+00,-3.250057005199971094e+00,-3.158661829026684575e+00,-3.033590066382911399e+00,-2.827076884865278306e+00,-2.573139864427601342e+00,-2.198174342025021044e+00,-1.476084339898060760e+00,1.052079005822245533e-01,2.524525880883879303e+00,3.572914622639272064e+00,4.520383218856382612e+00,5.553959686333472590e+00,7.355501014516611313e+00,1.019979677567770260e+01,1.180354373153123859e+01,1.309022592654125816e+01,1.532838988337858410e+01,1.773147719378747311e+01,2.119008542963453579e+01,2.507473616946850115e+01,2.900458956845728409e+01,3.254717928709016661e+01,3.461615418962217205e+01,3.571147982095820339e+01,3.608643607060300695e+01,3.704733052542608363e+01,3.754572583229247584e+01,3.696992888878427408e+01,3.511259757135738369e+01,3.434930265769775559e+01,3.333166943540120286e+01,3.378531124948904818e+01,3.756293142769599314e+01,3.963957797088530555e+01,3.918458900773762110e+01,3.895648934251288864e+01,3.739684061611787769e+01,3.488313187970526030e+01,3.486004461884522954e+01,3.404720033191781425e+01,3.244317762003204564e+01,3.302195387446824526e+01,3.156514497637009597e+01,3.008490860285989044e+01,2.859180210652909793e+01,2.644509700013790265e+01,2.439921705680613684e+01,2.199744900729529817e+01,2.138902953248929251e+01,2.000320447943841629e+01,1.788275873632312596e+01,1.556190167079291164e+01,1.331631681133054990e+01,1.172590946871157058e+01,9.819303726280057987e+00,7.367031260641771162e+00,4.029925107504976900e+00,1.915681439643429185e+00,4.088021502264941320e-01,-1.316244723375693315e+00,-1.944152895791150248e+00,-2.629588892283555079e+00,-3.172911196246370746e+00,-3.602634272409367178e+00,-3.975387755076762453e+00,-4.240606111841942472e+00,-4.412205557482888452e+00,-4.583603063025740276e+00,-4.811550526925528537e+00,-4.982394610241680510e+00,-5.130074816614223820e+00
8.804292843784336853e+00,7.075759469698459370e+00,6.138071108344259841e+00,6.543632417888455954e+00,5.838052246103480059e+00,2.799988920613223353e+00,2.467252231603009605e-01,-1.272802606819063653e+00,-1.899115553801335787e+00,-2.228621851615628202e+00,-2.474892083078878535e+00,-2.756950667779559438e+00,-2.915771652689252758e+00,-3.076855894255771773e+00,-3.195225491078310665e+00,-3.399588576181849398e+00,-3.539300128880013219e+00,-3.649608544363019291e+00,-3.734828986976893805e+00,-3.786349849246374077e+00,-3.894193777933314671e+00,-4.018901686299577669e+00,-4.147645481838385884e+00,-4.233460531461466836e+00,-4.286088550838397460e+00,-4.312129669303864432e+00,-4.324010150995889035e+00,-4.373464854968705851e+00,-4.409814159255175170e+00,-4.399503980817597970e+00,-4.409361769518978846e+00,-4.435412007138859636e+00,-4.482232903880286834e+00,-4.380384108461589321e+00,-4.233656803284103987e+00,-4.228666915865421316e+00,-4.171640048540139034e+00,-4.107945846700579828e+00,-4.028576701833587848e+00,-3.838195786858855652e+00,-3.647104230556494908e+00,-3.531638562447582785e+00,-3.528658572623011302e+00,-3.401149149869295840e+00,-3.267198745534492410e+00,-3.136919356666020509e+00,-2.951222087112653991e+00,-2.891576075584039174e+00,-2.795592882681094959e+00,-2.502046190737142073e+00,-2.196973141135900587e+00,-1.737921477479570376e+00,-9.812442716197650183e-01,9.170463617282600399e-01,3.554556075095126833e+00,3.970837891331855829e+00,4.541425518976718756e+00,6.729284153144022618e+00,9.826835485570303064e+00,1.157075191474634757e+01,1.282552647097144671e+01,1.504173647787719936e+01,1.747334669356557058e+01,1.892628036819649751e+01,2.151017471332706776e+01,2.509982216796366927e+01,2.789136394386091666e+01,3.047223092499515573e+01,3.227297761041653246e+01,3.244562131890124590e+01,3.293287710849426730e+01,3.522500837751712766e+01,3.699084007307398281e+01,3.578262578278635431e+01,3.278208700993642566e+01,3.199971418877925444e+01,3.149020525131996706e+01,3.203633831697874257e+01,3.587407577944912873e+01,3.807484635335220702e+01,3.859980754817289039e+01,3.751093696722786319e+01,3.467711261047082871e+01,3.419658911226499498e+01,3.388158680757096874e+01,3.247340311367475607e+01,3.102603210471326634e+01,3.086634907577342801e+01,2.911997637051641163e+01,2.793582766070933232e+01,2.716997341326948856e+01,2.555633912249457040e+01,2.408204395556592914e+01,2.170174407416064000e+01,2.004208365688485927e+01,1.782587767528469769e+01,1.527207760392705893e+01,1.279646591482511830e+01,1.160499142246190019e+01,1.134883289084994828e+01,9.881692131620685160e+00,7.194235739565210785e+00,3.842261767484673740e+00,1.179530049546022363e+00,-2.789641963252428858e-01,-1.484259657649779074e+00,-2.020954569890843988e+00,-2.673306847064832237e+00,-3.187869056596211337e+00,-3.622560550022106529e+00,-3.973201773639473355e+00,-4.205360258121157102e+00,-4.385156323697344760e+00,-4.532483358421107944e+00,-4.744043434252462887e+00,-4.940455495759545457e+00,-5.081821612685604173e+00
1.045559909939285781e+01,9.101668188453183816e+00,8.053057446507366990e+00,8.634549492997875220e+00,7.086240582178779945e+00,3.711946371194104533e+00,7.567531983181345900e-01,-8.993248444019501520e-01,-1.548331393443757253e+00,-1.916365885740731745e+00,-2.199974323948311383e+00,-2.700692458141959573e+00,-2.922841238098546679e+00,-3.017982925910778658e+00,-3.068999129018736838e+00,-3.164103865298843132e+00,-3.280884985802431153e+00,-3.468534844985973198e+00,-3.596730545673645363e+00,-3.622237313191544850e+00,-3.704916542139143676e+00,-3.770368431727193492e+00,-3.923395457868618763e+00,-4.082961878710257508e+00,-4.104503074782090088e+00,-4.108070587316167810e+00,-4.097369833911085557e+00,-4.037254164562044778e+00,-4.024483388569628062e+00,-4.075283734326908380e+00,-4.137957651939321302e+00,-4.168080374790084974e+00,-4.217310452636493068e+00,-4.167035530882561289e+00,-4.049171994250179374e+00,-4.057966560796416822e+00,-4.006921432483690815e+00,-3.958239484307664036e+00,-3.822007389471524519e+00,-3.603411066618521730e+00,-3.474713470055361242e+00,-3.377691591235354451e+00,-3.429071808479386085e+00,-3.327400637749516665e+00,-3.202844568473882880e+00,-3.052903890281263521e+00,-2.801459046036441247e+00,-2.577777439209519628e+00,-2.288166095528739508e+00,-1.963190262647772633e+00,-1.696071473113349048e+00,-1.004790228366421845e+00,4.160445880149549747e-01,1.928388484053723539e+00,4.206519327640426020e+00,5.242649973013712383e+00,6.815028177244904839e+00,9.053594644882041464e+00,1.218047523022551815e+01,1.388362257478374318e+01,1.597911480587791644e+01,1.814113484476287752e+01,1.967786556399051889e+01,2.054826536413448324e+01,2.266427970606169850e+01,2.512875518349698467e+01,2.593290783570087399e+01,2.668023726533499129e+01,2.731481179528692138e+01,2.828205395031242020e+01,3.057236083857320352e+01,3.343284768855832567e+01,3.570073082644849194e+01,3.571714010565921882e+01,3.338875490891789610e+01,3.128053878467417093e+01,2.998375134570795808e+01,3.049972096791655574e+01,3.427470914936598234e+01,3.575612678903883079e+01,3.639939099247006737e+01,3.588476622910502556e+01,3.319875558157060880e+01,3.449375279391073690e+01,3.365795591020467015e+01,3.157591370110021955e+01,3.019924547407653392e+01,2.881342866329906016e+01,2.629505938037497614e+01,2.542508150011098422e+01,2.539183176921090634e+01,2.436467617920217066e+01,2.351735423928031210e+01,2.143031493800540943e+01,1.899613610006671749e+01,1.604721163780543947e+01,1.315099056406489986e+01,1.107185602744261388e+01,1.140856446584376194e+01,1.139488796778878665e+01,9.324506467295918810e+00,6.625125366626237522e+00,3.466812277144931453e+00,4.334799509987179444e-01,-8.383073420843079049e-01,-1.769029130749157463e+00,-2.289623979064305370e+00,-2.820294117197231554e+00,-3.248903567317675822e+00,-3.608731376220130738e+00,-3.870825131480902570e+00,-4.119682353603860037e+00,-4.352715236477251004e+00,-4.543720189863208248e+00,-4.800247985574688236e+00,-5.020534825566693726e+00,-5.155414740803891505e+00
